
28435            

3     16121 16060 16122 
3     16060 16051 16122 
3     16051 16053 16122 
3     16122 16053 16123 
3     16053 16058 16123 
3     16123 16058 16124 
3     16124 16058 16125 
3     16058 16055 16125 
3     16055 16054 16125 
3     16054 16126 16125 
3     16126 16127 16125 
3     16125 16127 16128 
3     16127 16126 16128 
3     16126 16103 16128 
3     16103 16104 16128 
3     16104 16105 16128 
3     16105 16106 16128 
3     16128 16106 16129 
3     16129 16106 16130 
3     16106 16107 16130 
3     16130 16107 16131 
3     16107 16108 16131 
3     16131 16108 16132 
3     16108 16109 16132 
3     16132 16109 16133 
3     16133 16109 16134 
3     16109 16110 16134 
3     16134 16110 16135 
3     16110 16111 16135 
3     16111 16112 16135 
3     16135 16112 16136 
3     16112 16113 16136 
3     16136 16113 16137 
3     16113 16114 16137 
3     16114 16116 16137 
3     16137 16116 16138 
3     16116 16117 16138 
3     16139 16138 16140 
3     16138 16117 16140 
3     16117 16118 16140 
3     16140 16118 16141 
3     16118 16119 16141 
3     16119 16120 16141 
3     16141 16120 16142 
3     16120 16121 16142 
3     16121 16122 16142 
3     16142 16122 16143 
3     16143 16122 16144 
3     16122 16123 16144 
3     16123 16124 16144 
3     16144 16124 16145 
3     16124 16125 16145 
3     16145 16125 16146 
3     16125 16128 16146 
3     16128 16129 16146 
3     16146 16129 16147 
3     16147 16129 16148 
3     16149 16148 16150 
3     16148 16129 16150 
3     16129 16130 16150 
3     16130 16131 16150 
3     16150 16131 16151 
3     16131 16132 16151 
3     16151 16132 16152 
3     16132 16133 16152 
3     16152 16133 16153 
3     16133 16134 16153 
3     16153 16134 16154 
3     16154 16134 16155 
3     16134 16135 16155 
3     16135 16136 16155 
3     16136 16137 16155 
3     16155 16137 16156 
3     16137 16138 16156 
3     16156 16138 16157 
3     16138 16139 16157 
3     16157 16139 16158 
3     16158 16139 16159 
3     16139 16140 16159 
3     16140 16141 16159 
3     16141 16142 16159 
3     16142 16160 16159 
3     16159 16160 16161 
3     16161 16160 16162 
3     16160 16142 16162 
3     16162 16142 16163 
3     16142 16143 16163 
3     16163 16143 16164 
3     16143 16144 16164 
3     16144 16145 16164 
3     16164 16145 16165 
3     16145 16146 16165 
3     16165 16146 16166 
3     16146 16147 16166 
3     16166 16147 16167 
3     16147 16148 16167 
3     16148 16149 16167 
3     16167 16149 16168 
3     16149 16150 16168 
3     16150 16151 16168 
3     16151 16152 16168 
3     16168 16152 16169 
3     16169 16152 16170 
3     16152 16153 16170 
3     16153 16154 16170 
3     16170 16154 16171 
3     16154 16155 16171 
3     16155 16156 16171 
3     16156 16157 16171 
3     16171 16157 16172 
3     16157 16158 16172 
3     16172 16158 16173 
3     16158 16159 16173 
3     16159 16161 16173 
3     16173 16161 16174 
3     16161 16162 16174 
3     16162 16163 16174 
3     16163 16164 16174 
3     16164 16165 16174 
3     16165 16166 16174 
3     16174 16166 16175 
3     16175 16166 16176 
3     16166 16167 16176 
3     16167 16168 16176 
3     16176 16168 16177 
3     16168 16169 16177 
3     16169 16170 16177 
3     16170 16171 16177 
3     16171 16172 16177 
3     16177 16172 16178 
3     16172 16173 16178 
3     16173 16174 16178 
3     16174 16175 16178 
3     16175 16176 16178 
3     16178 16176 16179 
3     16176 16177 16179 
3     16180 16181 16182 
3     16182 16181 16183 
3     16184 16185 16186 
3     16187 16188 16189 
3     16189 16188 16190 
3     16188 16191 16190 
3     16192 16190 16193 
3     16190 16191 16193 
3     16193 16191 16194 
3     16191 16186 16194 
3     16194 16186 16195 
3     16186 16185 16195 
3     16195 16185 16196 
3     16196 16185 16197 
3     16185 16184 16197 
3     16198 16199 16200 
3     16200 16199 16201 
3     16201 16199 16202 
3     16203 16202 16204 
3     16204 16202 16205 
3     16202 16199 16205 
3     16205 16199 16206 
3     16199 16198 16206 
3     16206 16198 16197 
3     16198 16200 16197 
3     16197 16200 16207 
3     16207 16200 16208 
3     16208 16200 16209 
3     16200 16201 16209 
3     16201 16202 16209 
3     16202 16203 16209 
3     16209 16203 16210 
3     16211 16210 16212 
3     16212 16210 16213 
3     16210 16203 16213 
3     16214 16215 16216 
3     16216 16215 16217 
3     16215 16213 16217 
3     16213 16203 16217 
3     16203 16204 16217 
3     16217 16204 16218 
3     16204 16205 16218 
3     16205 16206 16218 
3     16218 16206 16219 
3     16206 16197 16219 
3     16197 16184 16219 
3     16219 16184 16220 
3     16221 16220 16222 
3     16220 16184 16222 
3     16184 16186 16222 
3     16222 16186 16223 
3     16186 16191 16223 
3     16223 16191 16224 
3     16225 16224 16226 
3     16224 16191 16226 
3     16191 16188 16226 
3     16227 16226 16228 
3     16226 16188 16228 
3     16188 16187 16228 
3     16228 16187 16229 
3     16229 16187 16230 
3     16187 16189 16230 
3     16231 16230 16232 
3     16230 16189 16232 
3     16232 16189 16233 
3     16189 16190 16233 
3     16190 16192 16233 
3     16233 16192 16234 
3     16192 16193 16234 
3     16193 16194 16234 
3     16194 16235 16234 
3     16234 16235 16236 
3     16236 16235 16237 
3     16235 16194 16237 
3     16238 16237 16239 
3     16237 16194 16239 
3     16194 16195 16239 
3     16239 16195 16240 
3     16240 16195 16241 
3     16195 16196 16241 
3     16196 16197 16241 
3     16197 16207 16241 
3     16241 16207 16242 
3     16242 16207 16243 
3     16207 16208 16243 
3     16244 16243 16245 
3     16245 16243 16246 
3     16243 16208 16246 
3     16208 16209 16246 
3     16247 16246 16248 
3     16246 16209 16248 
3     16209 16210 16248 
3     16210 16211 16248 
3     16248 16211 16249 
3     16211 16212 16249 
3     16249 16212 16250 
3     16250 16212 16251 
3     16212 16213 16251 
3     16213 16215 16251 
3     16251 16215 16252 
3     16215 16253 16252 
3     16253 16254 16252 
3     16255 16252 16256 
3     16252 16254 16256 
3     16256 16254 16257 
3     16257 16254 16258 
3     16258 16259 16260 
3     16260 16259 16261 
3     16261 16259 16262 
3     16262 16259 16263 
3     16259 16258 16263 
3     16258 16254 16263 
3     16254 16253 16263 
3     16263 16253 16264 
3     16253 16215 16264 
3     16215 16214 16264 
3     16214 16216 16264 
3     16264 16216 16265 
3     16216 16217 16265 
3     16217 16218 16265 
3     16265 16218 16266 
3     16218 16219 16266 
3     16219 16220 16266 
3     16266 16220 16267 
3     16220 16221 16267 
3     16268 16267 16269 
3     16267 16221 16269 
3     16269 16221 16270 
3     16270 16221 16271 
3     16221 16222 16271 
3     16222 16223 16271 
3     16223 16224 16271 
3     16271 16224 16272 
3     16224 16225 16272 
3     16273 16274 16275 
3     16274 16272 16275 
3     16272 16225 16275 
3     16275 16225 16276 
3     16225 16226 16276 
3     16226 16227 16276 
3     16276 16227 16277 
3     16227 16228 16277 
3     16228 16229 16277 
3     16277 16229 16278 
3     16229 16230 16278 
3     16230 16231 16278 
3     16279 16280 16281 
3     16280 16278 16281 
3     16278 16231 16281 
3     16281 16231 16282 
3     16231 16232 16282 
3     16232 16233 16282 
3     16233 16234 16282 
3     16234 16236 16282 
3     16282 16236 16283 
3     16236 16237 16283 
3     16283 16237 16284 
3     16237 16238 16284 
3     16284 16238 16285 
3     16238 16239 16285 
3     16239 16240 16285 
3     16240 16241 16285 
3     16285 16241 16286 
3     16241 16242 16286 
3     16286 16242 16287 
3     16287 16242 16288 
3     16242 16243 16288 
3     16243 16244 16288 
3     16288 16244 16289 
3     16289 16244 16290 
3     16244 16245 16290 
3     16290 16245 16291 
3     16245 16246 16291 
3     16246 16247 16291 
3     16292 16293 16294 
3     16294 16293 16295 
3     16293 16291 16295 
3     16291 16247 16295 
3     16295 16247 16296 
3     16247 16248 16296 
3     16296 16248 16297 
3     16248 16249 16297 
3     16249 16250 16297 
3     16297 16250 16298 
3     16298 16250 16299 
3     16250 16251 16299 
3     16251 16252 16299 
3     16252 16255 16299 
3     16255 16300 16299 
3     16299 16300 16301 
3     16301 16300 16302 
3     16302 16300 16303 
3     16300 16255 16303 
3     16303 16255 16304 
3     16255 16256 16304 
3     16256 16257 16304 
3     16304 16257 16305 
3     16257 16258 16305 
3     16258 16260 16305 
3     16305 16260 16306 
3     16306 16260 16307 
3     16260 16261 16307 
3     16307 16261 16308 
3     16308 16261 16309 
3     16261 16262 16309 
3     16309 16262 16310 
3     16310 16262 16311 
3     16262 16263 16311 
3     16263 16264 16311 
3     16264 16265 16311 
3     16265 16266 16311 
3     16311 16266 16312 
3     16266 16267 16312 
3     16267 16268 16312 
3     16312 16268 16313 
3     16313 16268 16314 
3     16268 16269 16314 
3     16269 16270 16314 
3     16270 16271 16314 
3     16314 16271 16315 
3     16271 16272 16315 
3     16315 16272 16316 
3     16272 16274 16316 
3     16274 16273 16316 
3     16316 16273 16317 
3     16317 16273 16318 
3     16318 16273 16319 
3     16273 16275 16319 
3     16275 16276 16319 
3     16276 16277 16319 
3     16319 16277 16320 
3     16277 16278 16320 
3     16278 16321 16320 
3     16320 16321 16322 
3     16323 16324 16325 
3     16324 16326 16325 
3     16325 16326 16327 
3     16326 16322 16327 
3     16322 16321 16327 
3     16321 16278 16327 
3     16278 16280 16327 
3     16327 16280 16328 
3     16280 16279 16328 
3     16329 16330 16331 
3     16330 16332 16331 
3     16331 16332 16333 
3     16333 16332 16334 
3     16335 16334 16336 
3     16334 16332 16336 
3     16336 16332 16337 
3     16183 16337 16338 
3     16339 16338 16340 
3     16338 16337 16340 
3     16337 16332 16340 
3     16340 16332 16341 
3     16332 16330 16341 
3     16330 16328 16341 
3     16328 16279 16341 
3     16341 16279 16342 
3     16279 16281 16342 
3     16342 16281 16343 
3     16281 16282 16343 
3     16343 16282 16344 
3     16282 16283 16344 
3     16344 16283 16345 
3     16283 16284 16345 
3     16345 16284 16346 
3     16346 16284 16347 
3     16284 16285 16347 
3     16285 16286 16347 
3     16347 16286 16348 
3     16286 16287 16348 
3     16348 16287 16349 
3     16349 16287 16350 
3     16287 16288 16350 
3     16288 16289 16350 
3     16350 16289 16351 
3     16351 16289 16352 
3     16352 16289 16353 
3     16289 16290 16353 
3     16353 16290 16354 
3     16290 16291 16354 
3     16354 16291 16355 
3     16291 16293 16355 
3     16293 16292 16355 
3     16355 16292 16356 
3     16356 16292 16357 
3     16292 16294 16357 
3     16357 16294 16358 
3     16358 16294 16359 
3     16294 16295 16359 
3     16295 16296 16359 
3     16296 16297 16359 
3     16359 16297 16360 
3     16360 16297 16361 
3     16297 16298 16361 
3     16361 16298 16362 
3     16298 16299 16362 
3     16299 16301 16362 
3     16362 16301 16363 
3     16301 16302 16363 
3     16364 16363 16365 
3     16363 16302 16365 
3     16302 16303 16365 
3     16365 16303 16366 
3     16303 16304 16366 
3     16366 16304 16367 
3     16367 16304 16368 
3     16304 16305 16368 
3     16305 16369 16368 
3     16368 16369 16370 
3     16370 16369 16371 
3     16371 16369 16372 
3     16369 16305 16372 
3     16305 16306 16372 
3     16372 16306 16373 
3     16306 16307 16373 
3     16373 16307 16374 
3     16307 16308 16374 
3     16375 16374 16376 
3     16374 16308 16376 
3     16376 16308 16377 
3     16377 16308 16378 
3     16308 16309 16378 
3     16378 16309 16379 
3     16309 16310 16379 
3     16310 16311 16379 
3     16311 16312 16379 
3     16312 16313 16379 
3     16379 16313 16380 
3     16313 16314 16380 
3     16314 16315 16380 
3     16380 16315 16381 
3     16381 16315 16382 
3     16315 16316 16382 
3     16316 16317 16382 
3     16382 16317 16383 
3     16383 16317 16384 
3     16317 16318 16384 
3     16318 16319 16384 
3     16384 16319 16385 
3     16319 16320 16385 
3     16320 16322 16385 
3     16385 16322 16386 
3     16322 16326 16386 
3     16386 16326 16387 
3     16326 16324 16387 
3     16387 16324 16388 
3     16388 16324 16389 
3     16324 16323 16389 
3     16389 16323 16390 
3     16323 16325 16390 
3     16325 16327 16390 
3     16327 16328 16390 
3     16328 16330 16390 
3     16330 16329 16390 
3     16391 16390 16392 
3     16390 16329 16392 
3     16329 16331 16392 
3     16392 16331 16393 
3     16331 16333 16393 
3     16333 16334 16393 
3     16393 16334 16394 
3     16334 16335 16394 
3     16335 16395 16394 
3     16394 16395 16396 
3     16396 16395 16397 
3     16398 16397 16399 
3     16397 16395 16399 
3     16399 16395 16400 
3     16395 16335 16400 
3     16335 16336 16400 
3     16336 16337 16400 
3     16337 16183 16400 
3     16400 16183 16401 
3     16183 16181 16401 
3     16401 16181 16402 
3     16181 16180 16402 
3     16403 16402 16404 
3     16402 16180 16404 
3     16404 16180 16405 
3     16180 16182 16405 
3     16406 16405 16407 
3     16405 16182 16407 
3     16182 16183 16407 
3     16183 16338 16407 
3     16407 16338 16408 
3     16338 16339 16408 
3     16408 16339 16409 
3     16339 16340 16409 
3     16340 16341 16409 
3     16410 16409 16411 
3     16409 16341 16411 
3     16341 16342 16411 
3     16342 16343 16411 
3     16343 16344 16411 
3     16344 16345 16411 
3     16411 16345 16412 
3     16345 16346 16412 
3     16413 16412 16414 
3     16412 16346 16414 
3     16414 16346 16415 
3     16346 16347 16415 
3     16347 16348 16415 
3     16415 16348 16416 
3     16348 16349 16416 
3     16416 16349 16417 
3     16417 16349 16418 
3     16418 16349 16419 
3     16349 16350 16419 
3     16350 16351 16419 
3     16419 16351 16420 
3     16420 16351 16421 
3     16351 16352 16421 
3     16352 16353 16421 
3     16421 16353 16422 
3     16422 16353 16423 
3     16353 16354 16423 
3     16423 16354 16424 
3     16354 16355 16424 
3     16355 16356 16424 
3     16424 16356 16425 
3     16425 16356 16426 
3     16356 16357 16426 
3     16426 16357 16427 
3     16427 16357 16428 
3     16357 16358 16428 
3     16428 16358 16429 
3     16358 16359 16429 
3     16359 16360 16429 
3     16429 16360 16430 
3     16430 16360 16431 
3     16360 16361 16431 
3     16431 16361 16432 
3     16361 16362 16432 
3     16362 16363 16432 
3     16432 16363 16433 
3     16363 16364 16433 
3     16433 16364 16434 
3     16434 16364 16435 
3     16364 16365 16435 
3     16435 16365 16436 
3     16365 16366 16436 
3     16436 16366 16437 
3     16366 16367 16437 
3     16437 16367 16438 
3     16367 16368 16438 
3     16438 16368 16439 
3     16439 16368 16440 
3     16368 16370 16440 
3     16440 16370 16441 
3     16370 16371 16441 
3     16371 16442 16441 
3     16441 16442 16443 
3     16444 16443 16445 
3     16443 16442 16445 
3     16442 16371 16445 
3     16445 16371 16446 
3     16371 16372 16446 
3     16446 16372 16447 
3     16372 16373 16447 
3     16373 16374 16447 
3     16374 16375 16447 
3     16447 16375 16448 
3     16448 16375 16449 
3     16375 16376 16449 
3     16450 16451 16452 
3     16451 16449 16452 
3     16449 16376 16452 
3     16376 16377 16452 
3     16452 16377 16453 
3     16377 16378 16453 
3     16453 16378 16454 
3     16378 16379 16454 
3     16379 16380 16454 
3     16380 16381 16454 
3     16454 16381 16455 
3     16381 16382 16455 
3     16382 16383 16455 
3     16455 16383 16456 
3     16456 16383 16457 
3     16457 16383 16458 
3     16383 16384 16458 
3     16458 16384 16459 
3     16384 16385 16459 
3     16460 16459 16461 
3     16459 16385 16461 
3     16385 16386 16461 
3     16386 16387 16461 
3     16387 16388 16461 
3     16461 16388 16462 
3     16388 16389 16462 
3     16462 16389 16463 
3     16389 16390 16463 
3     16390 16391 16463 
3     16463 16391 16464 
3     16391 16392 16464 
3     16464 16392 16465 
3     16392 16393 16465 
3     16393 16394 16465 
3     16465 16394 16466 
3     16394 16396 16466 
3     16466 16396 16467 
3     16396 16397 16467 
3     16468 16467 16469 
3     16467 16397 16469 
3     16397 16398 16469 
3     16469 16398 16470 
3     16470 16398 16471 
3     16398 16399 16471 
3     16399 16400 16471 
3     16400 16401 16471 
3     16471 16401 16472 
3     16401 16402 16472 
3     16402 16403 16472 
3     16472 16403 16473 
3     16473 16403 16474 
3     16474 16403 16475 
3     16403 16404 16475 
3     16404 16405 16475 
3     16405 16406 16475 
3     16475 16406 16476 
3     16476 16406 16477 
3     16406 16407 16477 
3     16407 16408 16477 
3     16477 16408 16478 
3     16478 16408 16479 
3     16408 16409 16479 
3     16409 16410 16479 
3     16479 16410 16480 
3     16410 16411 16480 
3     16411 16412 16480 
3     16412 16413 16480 
3     16480 16413 16481 
3     16413 16414 16481 
3     16482 16481 16483 
3     16481 16414 16483 
3     16414 16415 16483 
3     16415 16416 16483 
3     16483 16416 16484 
3     16416 16417 16484 
3     16417 16418 16484 
3     16484 16418 16485 
3     16485 16418 16486 
3     16418 16419 16486 
3     16419 16420 16486 
3     16486 16420 16487 
3     16420 16421 16487 
3     16487 16421 16488 
3     16488 16421 16489 
3     16421 16422 16489 
3     16422 16423 16489 
3     16489 16423 16490 
3     16423 16424 16490 
3     16424 16425 16490 
3     16490 16425 16491 
3     16425 16426 16491 
3     16426 16427 16491 
3     16491 16427 16492 
3     16427 16428 16492 
3     16492 16428 16493 
3     16428 16429 16493 
3     16429 16430 16493 
3     16493 16430 16494 
3     16494 16430 16495 
3     16430 16431 16495 
3     16495 16431 16496 
3     16431 16432 16496 
3     16432 16433 16496 
3     16433 16434 16496 
3     16496 16434 16497 
3     16497 16434 16498 
3     16498 16434 16499 
3     16434 16435 16499 
3     16435 16436 16499 
3     16499 16436 16500 
3     16500 16436 16501 
3     16436 16437 16501 
3     16437 16438 16501 
3     16501 16438 16502 
3     16502 16438 16503 
3     16438 16439 16503 
3     16503 16439 16504 
3     16439 16440 16504 
3     16504 16440 16505 
3     16440 16441 16505 
3     16505 16441 16506 
3     16441 16443 16506 
3     16506 16443 16507 
3     16443 16444 16507 
3     16507 16444 16508 
3     16508 16444 16509 
3     16444 16445 16509 
3     16509 16445 16510 
3     16445 16446 16510 
3     16510 16446 16511 
3     16446 16447 16511 
3     16447 16448 16511 
3     16511 16448 16512 
3     16448 16449 16512 
3     16512 16449 16513 
3     16449 16451 16513 
3     16451 16450 16513 
3     16513 16450 16514 
3     16514 16450 16515 
3     16450 16452 16515 
3     16452 16453 16515 
3     16515 16453 16516 
3     16453 16454 16516 
3     16454 16455 16516 
3     16455 16456 16516 
3     16517 16518 16519 
3     16520 16521 16522 
3     16522 16523 16524 
3     16525 16526 16527 
3     16527 16526 16528 
3     16526 16529 16528 
3     16529 16530 16528 
3     16528 16530 16531 
3     16531 16530 16532 
3     16533 16534 16535 
3     16535 16534 16536 
3     16534 16532 16536 
3     16536 16532 16537 
3     16532 16530 16537 
3     16537 16530 16538 
3     16530 16529 16538 
3     16539 16538 16540 
3     16538 16529 16540 
3     16540 16529 16541 
3     16529 16526 16541 
3     16526 16525 16541 
3     16542 16543 16544 
3     16544 16543 16545 
3     16543 16546 16545 
3     16545 16546 16547 
3     16541 16547 16548 
3     16547 16546 16548 
3     16548 16546 16549 
3     16549 16546 16550 
3     16546 16543 16550 
3     16550 16543 16551 
3     16543 16542 16551 
3     16552 16551 16553 
3     16551 16542 16553 
3     16553 16542 16554 
3     16542 16544 16554 
3     16554 16544 16555 
3     16544 16545 16555 
3     16555 16545 16556 
3     16545 16547 16556 
3     16547 16541 16556 
3     16557 16556 16558 
3     16556 16541 16558 
3     16541 16525 16558 
3     16525 16527 16558 
3     16558 16527 16559 
3     16559 16527 16560 
3     16527 16528 16560 
3     16528 16531 16560 
3     16560 16531 16561 
3     16531 16532 16561 
3     16532 16534 16561 
3     16534 16533 16561 
3     16561 16533 16562 
3     16533 16563 16562 
3     16562 16563 16564 
3     16565 16564 16566 
3     16564 16563 16566 
3     16566 16563 16567 
3     16563 16533 16567 
3     16568 16569 16570 
3     16570 16569 16571 
3     16572 16571 16573 
3     16571 16569 16573 
3     16569 16568 16573 
3     16574 16573 16575 
3     16573 16568 16575 
3     16575 16568 16576 
3     16577 16578 16579 
3     16579 16578 16580 
3     16578 16581 16580 
3     16580 16581 16582 
3     16581 16578 16582 
3     16582 16578 16583 
3     16578 16577 16583 
3     16577 16576 16583 
3     16576 16568 16583 
3     16584 16583 16585 
3     16583 16568 16585 
3     16585 16568 16586 
3     16568 16570 16586 
3     16586 16570 16587 
3     16570 16571 16587 
3     16587 16571 16588 
3     16571 16567 16588 
3     16567 16533 16588 
3     16589 16588 16590 
3     16588 16533 16590 
3     16533 16535 16590 
3     16590 16535 16591 
3     16535 16536 16591 
3     16536 16537 16591 
3     16591 16537 16592 
3     16537 16538 16592 
3     16538 16539 16592 
3     16592 16539 16593 
3     16593 16539 16594 
3     16539 16540 16594 
3     16594 16540 16595 
3     16595 16540 16596 
3     16540 16541 16596 
3     16541 16548 16596 
3     16596 16548 16597 
3     16548 16549 16597 
3     16597 16549 16598 
3     16549 16550 16598 
3     16598 16550 16599 
3     16600 16599 16601 
3     16599 16550 16601 
3     16550 16551 16601 
3     16601 16551 16602 
3     16602 16551 16603 
3     16551 16552 16603 
3     16552 16524 16603 
3     16524 16523 16603 
3     16603 16523 16604 
3     16523 16522 16604 
3     16522 16521 16604 
3     16604 16521 16605 
3     16605 16521 16606 
3     16606 16521 16607 
3     16521 16520 16607 
3     16607 16520 16608 
3     16609 16608 16610 
3     16608 16520 16610 
3     16610 16520 16611 
3     16520 16522 16611 
3     16611 16522 16612 
3     16612 16522 16613 
3     16613 16522 16614 
3     16522 16524 16614 
3     16614 16524 16615 
3     16524 16552 16615 
3     16616 16615 16617 
3     16615 16552 16617 
3     16552 16553 16617 
3     16617 16553 16618 
3     16553 16554 16618 
3     16619 16620 16621 
3     16620 16622 16621 
3     16622 16618 16621 
3     16618 16554 16621 
3     16621 16554 16623 
3     16554 16555 16623 
3     16555 16556 16623 
3     16556 16557 16623 
3     16623 16557 16624 
3     16557 16558 16624 
3     16558 16559 16624 
3     16624 16559 16625 
3     16559 16560 16625 
3     16626 16625 16627 
3     16627 16625 16628 
3     16625 16560 16628 
3     16560 16561 16628 
3     16561 16562 16628 
3     16628 16562 16629 
3     16562 16564 16629 
3     16629 16564 16630 
3     16564 16565 16630 
3     16631 16630 16632 
3     16630 16565 16632 
3     16565 16566 16632 
3     16566 16567 16632 
3     16567 16571 16632 
3     16632 16571 16633 
3     16571 16572 16633 
3     16633 16572 16634 
3     16572 16573 16634 
3     16573 16574 16634 
3     16634 16574 16635 
3     16635 16574 16636 
3     16574 16575 16636 
3     16636 16575 16637 
3     16575 16576 16637 
3     16637 16576 16638 
3     16576 16577 16638 
3     16638 16577 16639 
3     16577 16579 16639 
3     16639 16579 16640 
3     16640 16579 16641 
3     16579 16580 16641 
3     16580 16642 16641 
3     16641 16642 16643 
3     16643 16642 16644 
3     16645 16644 16646 
3     16644 16642 16646 
3     16646 16642 16647 
3     16647 16642 16648 
3     16642 16580 16648 
3     16580 16582 16648 
3     16648 16582 16649 
3     16649 16582 16650 
3     16582 16583 16650 
3     16583 16584 16650 
3     16650 16584 16651 
3     16651 16584 16652 
3     16584 16585 16652 
3     16585 16586 16652 
3     16652 16586 16653 
3     16653 16586 16654 
3     16586 16587 16654 
3     16654 16587 16655 
3     16655 16587 16656 
3     16587 16588 16656 
3     16588 16589 16656 
3     16656 16589 16657 
3     16589 16590 16657 
3     16657 16590 16658 
3     16590 16591 16658 
3     16658 16591 16659 
3     16591 16592 16659 
3     16659 16592 16660 
3     16592 16593 16660 
3     16661 16660 16662 
3     16660 16593 16662 
3     16662 16593 16663 
3     16593 16594 16663 
3     16594 16595 16663 
3     16663 16595 16664 
3     16665 16664 16666 
3     16666 16664 16667 
3     16664 16595 16667 
3     16595 16596 16667 
3     16596 16597 16667 
3     16597 16598 16667 
3     16667 16598 16668 
3     16598 16599 16668 
3     16668 16599 16669 
3     16599 16600 16669 
3     16669 16600 16670 
3     16600 16601 16670 
3     16601 16602 16670 
3     16670 16602 16671 
3     16671 16602 16672 
3     16602 16603 16672 
3     16603 16604 16672 
3     16604 16605 16672 
3     16605 16606 16672 
3     16673 16672 16674 
3     16672 16606 16674 
3     16674 16606 16675 
3     16606 16607 16675 
3     16607 16608 16675 
3     16608 16676 16675 
3     16675 16676 16677 
3     16678 16677 16679 
3     16677 16676 16679 
3     16676 16519 16679 
3     16519 16518 16679 
3     16679 16518 16680 
3     16518 16517 16680 
3     16680 16517 16681 
3     16682 16683 16684 
3     16683 16681 16684 
3     16681 16517 16684 
3     16684 16517 16685 
3     16685 16517 16686 
3     16686 16517 16687 
3     16517 16519 16687 
3     16519 16676 16687 
3     16676 16608 16687 
3     16608 16609 16687 
3     16687 16609 16688 
3     16609 16610 16688 
3     16689 16688 16690 
3     16688 16610 16690 
3     16690 16610 16691 
3     16610 16611 16691 
3     16611 16612 16691 
3     16691 16612 16692 
3     16612 16613 16692 
3     16692 16613 16693 
3     16613 16614 16693 
3     16614 16615 16693 
3     16615 16616 16693 
3     16693 16616 16694 
3     16694 16616 16695 
3     16695 16616 16696 
3     16616 16617 16696 
3     16617 16618 16696 
3     16696 16618 16697 
3     16697 16618 16698 
3     16618 16622 16698 
3     16622 16620 16698 
3     16698 16620 16699 
3     16699 16620 16700 
3     16620 16619 16700 
3     16619 16621 16700 
3     16621 16623 16700 
3     16700 16623 16701 
3     16701 16623 16702 
3     16623 16624 16702 
3     16702 16624 16703 
3     16624 16625 16703 
3     16625 16626 16703 
3     16704 16703 16705 
3     16705 16703 16706 
3     16703 16626 16706 
3     16706 16626 16707 
3     16626 16627 16707 
3     16627 16628 16707 
3     16628 16629 16707 
3     16629 16708 16707 
3     16707 16708 16709 
3     16709 16708 16710 
3     16710 16708 16711 
3     16708 16629 16711 
3     16629 16630 16711 
3     16630 16631 16711 
3     16711 16631 16712 
3     16631 16632 16712 
3     16632 16633 16712 
3     16633 16634 16712 
3     16712 16634 16713 
3     16634 16635 16713 
3     16713 16635 16714 
3     16635 16636 16714 
3     16714 16636 16715 
3     16715 16636 16716 
3     16636 16637 16716 
3     16637 16638 16716 
3     16716 16638 16717 
3     16638 16639 16717 
3     16717 16639 16718 
3     16639 16640 16718 
3     16719 16718 16720 
3     16718 16640 16720 
3     16720 16640 16721 
3     16640 16641 16721 
3     16641 16643 16721 
3     16643 16644 16721 
3     16644 16722 16721 
3     16723 16721 16724 
3     16724 16721 16725 
3     16721 16722 16725 
3     16725 16722 16726 
3     16727 16728 16729 
3     16728 16730 16729 
3     16730 16731 16729 
3     16729 16731 16732 
3     16732 16731 16733 
3     16731 16734 16733 
3     16734 16735 16733 
3     16726 16733 16736 
3     16737 16736 16738 
3     16736 16733 16738 
3     16733 16735 16738 
3     16738 16735 16739 
3     16735 16734 16739 
3     16739 16734 16740 
3     16734 16731 16740 
3     16731 16730 16740 
3     16741 16742 16743 
3     16743 16742 16740 
3     16740 16742 16744 
3     16742 16741 16744 
3     16744 16741 16745 
3     16745 16741 16746 
3     16746 16741 16747 
3     16741 16743 16747 
3     16747 16743 16748 
3     16743 16740 16748 
3     16740 16730 16748 
3     16730 16728 16748 
3     16748 16728 16749 
3     16749 16728 16750 
3     16728 16727 16750 
3     16750 16727 16751 
3     16751 16727 16752 
3     16727 16729 16752 
3     16729 16732 16752 
3     16753 16752 16754 
3     16752 16732 16754 
3     16732 16733 16754 
3     16754 16733 16755 
3     16733 16726 16755 
3     16726 16722 16755 
3     16722 16644 16755 
3     16644 16645 16755 
3     16755 16645 16756 
3     16645 16646 16756 
3     16646 16647 16756 
3     16647 16648 16756 
3     16756 16648 16757 
3     16648 16649 16757 
3     16757 16649 16758 
3     16758 16649 16759 
3     16649 16650 16759 
3     16650 16651 16759 
3     16759 16651 16760 
3     16651 16652 16760 
3     16652 16653 16760 
3     16760 16653 16761 
3     16653 16654 16761 
3     16654 16655 16761 
3     16761 16655 16762 
3     16762 16655 16763 
3     16655 16656 16763 
3     16656 16657 16763 
3     16657 16658 16763 
3     16763 16658 16764 
3     16764 16658 16765 
3     16658 16659 16765 
3     16659 16660 16765 
3     16765 16660 16766 
3     16660 16661 16766 
3     16766 16661 16767 
3     16767 16661 16768 
3     16661 16662 16768 
3     16662 16663 16768 
3     16663 16664 16768 
3     16664 16665 16768 
3     16768 16665 16769 
3     16665 16666 16769 
3     16769 16666 16770 
3     16666 16667 16770 
3     16667 16668 16770 
3     16770 16668 16771 
3     16668 16669 16771 
3     16771 16669 16772 
3     16772 16669 16773 
3     16669 16670 16773 
3     16670 16671 16773 
3     16773 16671 16774 
3     16671 16672 16774 
3     16672 16673 16774 
3     16774 16673 16775 
3     16673 16674 16775 
3     16775 16674 16776 
3     16776 16674 16777 
3     16674 16675 16777 
3     16675 16677 16777 
3     16777 16677 16778 
3     16677 16678 16778 
3     16778 16678 16779 
3     16678 16679 16779 
3     16779 16679 16780 
3     16679 16680 16780 
3     16780 16680 16781 
3     16680 16681 16781 
3     16781 16681 16782 
3     16681 16683 16782 
3     16683 16682 16782 
3     16782 16682 16783 
3     16783 16682 16784 
3     16784 16682 16785 
3     16682 16684 16785 
3     16684 16685 16785 
3     16785 16685 16786 
3     16685 16686 16786 
3     16686 16687 16786 
3     16687 16688 16786 
3     16688 16689 16786 
3     16786 16689 16787 
3     16787 16689 16788 
3     16788 16689 16789 
3     16789 16689 16790 
3     16689 16690 16790 
3     16690 16691 16790 
3     16790 16691 16791 
3     16691 16692 16791 
3     16791 16692 16792 
3     16692 16693 16792 
3     16693 16694 16792 
3     16792 16694 16793 
3     16793 16694 16794 
3     16694 16695 16794 
3     16794 16695 16795 
3     16695 16696 16795 
3     16696 16697 16795 
3     16697 16698 16795 
3     16698 16796 16795 
3     16795 16796 16797 
3     16797 16796 16798 
3     16796 16698 16798 
3     16698 16699 16798 
3     16798 16699 16799 
3     16699 16700 16799 
3     16700 16701 16799 
3     16701 16702 16799 
3     16799 16702 16800 
3     16800 16702 16801 
3     16702 16703 16801 
3     16703 16704 16801 
3     16801 16704 16802 
3     16704 16705 16802 
3     16802 16705 16803 
3     16705 16706 16803 
3     16706 16707 16803 
3     16707 16709 16803 
3     16803 16709 16804 
3     16804 16709 16805 
3     16709 16710 16805 
3     16710 16711 16805 
3     16805 16711 16806 
3     16711 16712 16806 
3     16712 16713 16806 
3     16806 16713 16807 
3     16713 16714 16807 
3     16714 16715 16807 
3     16807 16715 16808 
3     16808 16715 16809 
3     16715 16716 16809 
3     16809 16716 16810 
3     16716 16717 16810 
3     16717 16718 16810 
3     16810 16718 16811 
3     16811 16718 16812 
3     16718 16719 16812 
3     16812 16719 16813 
3     16719 16720 16813 
3     16720 16721 16813 
3     16721 16723 16813 
3     16813 16723 16814 
3     16815 16814 16816 
3     16814 16723 16816 
3     16816 16723 16817 
3     16723 16724 16817 
3     16724 16725 16817 
3     16817 16725 16818 
3     16725 16726 16818 
3     16726 16736 16818 
3     16736 16737 16818 
3     16818 16737 16819 
3     16819 16737 16820 
3     16737 16738 16820 
3     16738 16739 16820 
3     16820 16739 16821 
3     16821 16739 16822 
3     16739 16740 16822 
3     16740 16744 16822 
3     16744 16745 16822 
3     16822 16745 16823 
3     16823 16745 16824 
3     16745 16746 16824 
3     16824 16746 16825 
3     16825 16746 16826 
3     16746 16747 16826 
3     16826 16747 16827 
3     16747 16748 16827 
3     16748 16749 16827 
3     16827 16749 16828 
3     16828 16749 16829 
3     16749 16750 16829 
3     16750 16751 16829 
3     16829 16751 16830 
3     16751 16752 16830 
3     16830 16752 16831 
3     16752 16753 16831 
3     16831 16753 16832 
3     16753 16754 16832 
3     16754 16755 16832 
3     16755 16756 16832 
3     16832 16756 16833 
3     16756 16757 16833 
3     16757 16758 16833 
3     16758 16759 16833 
3     16834 16835 16836 
3     16837 16838 16839 
3     16840 16841 16842 
3     16841 16843 16842 
3     16843 16839 16842 
3     16839 16844 16842 
3     16842 16844 16845 
3     16845 16844 16846 
3     16846 16844 16847 
3     16844 16839 16847 
3     16839 16838 16847 
3     16847 16838 16848 
3     16838 16849 16848 
3     16848 16849 16850 
3     16849 16851 16850 
3     16850 16851 16852 
3     16853 16852 16854 
3     16852 16851 16854 
3     16854 16851 16855 
3     16851 16849 16855 
3     16855 16849 16856 
3     16856 16849 16857 
3     16849 16838 16857 
3     16838 16837 16857 
3     16857 16837 16858 
3     16837 16839 16858 
3     16839 16843 16858 
3     16858 16843 16859 
3     16860 16859 16861 
3     16859 16862 16861 
3     16862 16863 16861 
3     16861 16863 16864 
3     16864 16863 16865 
3     16865 16863 16866 
3     16863 16862 16866 
3     16867 16866 16868 
3     16866 16862 16868 
3     16862 16859 16868 
3     16859 16843 16868 
3     16843 16841 16868 
3     16868 16841 16869 
3     16841 16840 16869 
3     16870 16869 16836 
3     16869 16840 16836 
3     16836 16840 16871 
3     16871 16840 16872 
3     16840 16842 16872 
3     16842 16845 16872 
3     16872 16845 16873 
3     16845 16846 16873 
3     16874 16873 16875 
3     16873 16846 16875 
3     16875 16846 16876 
3     16846 16847 16876 
3     16876 16847 16877 
3     16847 16848 16877 
3     16848 16850 16877 
3     16877 16850 16878 
3     16850 16879 16878 
3     16878 16879 16880 
3     16879 16850 16880 
3     16850 16852 16880 
3     16880 16852 16881 
3     16881 16852 16882 
3     16852 16853 16882 
3     16882 16883 16884 
3     16884 16883 16885 
3     16885 16883 16886 
3     16886 16883 16887 
3     16883 16888 16887 
3     16889 16890 16891 
3     16890 16887 16891 
3     16887 16888 16891 
3     16891 16888 16892 
3     16892 16888 16893 
3     16888 16883 16893 
3     16883 16882 16893 
3     16882 16853 16893 
3     16853 16854 16893 
3     16893 16854 16894 
3     16894 16854 16895 
3     16854 16855 16895 
3     16895 16855 16896 
3     16855 16856 16896 
3     16896 16856 16897 
3     16856 16857 16897 
3     16857 16858 16897 
3     16858 16859 16897 
3     16859 16860 16897 
3     16897 16860 16898 
3     16898 16860 16899 
3     16860 16861 16899 
3     16861 16864 16899 
3     16899 16864 16900 
3     16864 16865 16900 
3     16901 16900 16902 
3     16902 16900 16903 
3     16900 16865 16903 
3     16865 16866 16903 
3     16903 16866 16904 
3     16866 16867 16904 
3     16904 16867 16905 
3     16867 16868 16905 
3     16868 16869 16905 
3     16869 16870 16905 
3     16905 16870 16906 
3     16906 16870 16907 
3     16870 16836 16907 
3     16836 16835 16907 
3     16907 16835 16908 
3     16835 16834 16908 
3     16908 16834 16909 
3     16909 16834 16910 
3     16910 16834 16911 
3     16834 16836 16911 
3     16836 16871 16911 
3     16871 16872 16911 
3     16911 16872 16912 
3     16912 16872 16913 
3     16872 16873 16913 
3     16873 16874 16913 
3     16913 16874 16914 
3     16914 16874 16915 
3     16916 16915 16917 
3     16917 16915 16918 
3     16915 16874 16918 
3     16874 16875 16918 
3     16875 16876 16918 
3     16918 16876 16919 
3     16919 16876 16920 
3     16876 16877 16920 
3     16877 16878 16920 
3     16878 16921 16920 
3     16920 16921 16922 
3     16923 16924 16925 
3     16925 16924 16926 
3     16924 16922 16926 
3     16922 16921 16926 
3     16921 16878 16926 
3     16926 16878 16927 
3     16878 16880 16927 
3     16880 16881 16927 
3     16927 16881 16928 
3     16881 16882 16928 
3     16929 16928 16930 
3     16928 16882 16930 
3     16882 16884 16930 
3     16930 16884 16931 
3     16931 16884 16932 
3     16884 16885 16932 
3     16932 16885 16933 
3     16885 16886 16933 
3     16886 16887 16933 
3     16933 16887 16934 
3     16887 16890 16934 
3     16890 16935 16934 
3     16936 16934 16937 
3     16934 16935 16937 
3     16937 16935 16938 
3     16935 16890 16938 
3     16890 16889 16938 
3     16938 16889 16939 
3     16939 16889 16940 
3     16889 16891 16940 
3     16891 16892 16940 
3     16940 16892 16941 
3     16892 16893 16941 
3     16893 16894 16941 
3     16941 16894 16942 
3     16942 16894 16943 
3     16894 16895 16943 
3     16943 16895 16944 
3     16895 16896 16944 
3     16896 16897 16944 
3     16897 16898 16944 
3     16944 16898 16945 
3     16898 16899 16945 
3     16899 16900 16945 
3     16900 16901 16945 
3     16945 16946 16947 
3     16946 16948 16947 
3     16949 16947 16950 
3     16947 16948 16950 
3     16951 16950 16952 
3     16950 16948 16952 
3     16948 16946 16952 
3     16952 16946 16953 
3     16946 16945 16953 
3     16945 16901 16953 
3     16901 16902 16953 
3     16953 16902 16954 
3     16955 16956 16957 
3     16956 16954 16957 
3     16954 16902 16957 
3     16902 16903 16957 
3     16957 16903 16958 
3     16958 16903 16959 
3     16903 16904 16959 
3     16959 16904 16960 
3     16904 16905 16960 
3     16905 16906 16960 
3     16906 16907 16960 
3     16960 16907 16961 
3     16907 16908 16961 
3     16961 16908 16962 
3     16962 16908 16963 
3     16908 16909 16963 
3     16963 16909 16964 
3     16965 16964 16966 
3     16964 16909 16966 
3     16909 16910 16966 
3     16966 16910 16967 
3     16967 16910 16968 
3     16910 16911 16968 
3     16911 16912 16968 
3     16969 16968 16970 
3     16968 16912 16970 
3     16912 16913 16970 
3     16913 16914 16970 
3     16970 16914 16971 
3     16914 16915 16971 
3     16971 16915 16972 
3     16915 16916 16972 
3     16972 16916 16973 
3     16916 16917 16973 
3     16973 16917 16974 
3     16917 16918 16974 
3     16918 16919 16974 
3     16974 16919 16975 
3     16919 16920 16975 
3     16920 16922 16975 
3     16922 16924 16975 
3     16976 16977 16978 
3     16977 16975 16978 
3     16975 16924 16978 
3     16978 16924 16979 
3     16924 16923 16979 
3     16923 16925 16979 
3     16979 16925 16980 
3     16980 16925 16981 
3     16925 16926 16981 
3     16926 16927 16981 
3     16927 16928 16981 
3     16928 16929 16981 
3     16981 16929 16982 
3     16982 16929 16983 
3     16929 16930 16983 
3     16930 16931 16983 
3     16931 16984 16983 
3     16983 16984 16985 
3     16985 16984 16986 
3     16984 16931 16986 
3     16931 16932 16986 
3     16932 16933 16986 
3     16986 16933 16987 
3     16933 16934 16987 
3     16987 16934 16988 
3     16988 16934 16989 
3     16934 16936 16989 
3     16989 16936 16990 
3     16936 16937 16990 
3     16990 16937 16991 
3     16937 16938 16991 
3     16991 16938 16992 
3     16938 16939 16992 
3     16992 16939 16993 
3     16993 16939 16994 
3     16994 16939 16995 
3     16939 16940 16995 
3     16940 16941 16995 
3     16995 16941 16996 
3     16941 16942 16996 
3     16996 16942 16997 
3     16997 16942 16998 
3     16942 16943 16998 
3     16998 16943 16999 
3     16943 16944 16999 
3     16999 16944 17000 
3     17000 16944 17001 
3     16944 16945 17001 
3     16945 16947 17001 
3     17001 16947 17002 
3     16947 16949 17002 
3     16949 16950 17002 
3     17002 16950 17003 
3     17003 16950 17004 
3     16950 16951 17004 
3     16951 17005 17004 
3     17004 17005 17006 
3     17005 16951 17006 
3     16951 16952 17006 
3     17006 16952 17007 
3     17007 16952 17008 
3     16952 16953 17008 
3     16953 16954 17008 
3     16954 16956 17008 
3     17008 16956 17009 
3     16956 16955 17009 
3     17009 16955 17010 
3     17010 16955 17011 
3     17011 16955 17012 
3     16955 16957 17012 
3     17012 16957 17013 
3     16957 16958 17013 
3     17013 16958 17014 
3     16958 16959 17014 
3     17014 16959 17015 
3     16959 16960 17015 
3     16960 16961 17015 
3     17015 16961 17016 
3     16961 16962 17016 
3     16962 16963 17016 
3     17016 16963 17017 
3     17018 17019 17020 
3     17021 17020 17022 
3     17020 17019 17022 
3     17022 17019 17023 
3     17019 17018 17023 
3     17018 17017 17023 
3     17017 16963 17023 
3     17023 16963 17024 
3     16963 16964 17024 
3     16964 16965 17024 
3     17024 16965 17025 
3     16965 16966 17025 
3     17025 16966 17026 
3     17026 16966 17027 
3     16966 16967 17027 
3     17027 16967 17028 
3     17028 16967 17029 
3     16967 16968 17029 
3     16968 16969 17029 
3     17029 16969 17030 
3     17030 16969 17031 
3     16969 16970 17031 
3     16970 16971 17031 
3     16971 16972 17031 
3     17031 16972 17032 
3     16972 16973 17032 
3     17032 16973 17033 
3     16973 16974 17033 
3     16974 16975 17033 
3     16975 16977 17033 
3     16977 16976 17033 
3     17033 16976 17034 
3     17035 17034 17036 
3     17034 16976 17036 
3     16976 16978 17036 
3     16978 16979 17036 
3     17036 16979 17037 
3     17037 16979 17038 
3     16979 16980 17038 
3     17038 16980 17039 
3     16980 16981 17039 
3     16981 16982 17039 
3     17039 16982 17040 
3     16982 16983 17040 
3     16983 16985 17040 
3     17040 16985 17041 
3     17041 16985 17042 
3     16985 16986 17042 
3     17042 16986 17043 
3     16986 16987 17043 
3     16987 16988 17043 
3     17043 16988 17044 
3     16988 16989 17044 
3     16989 16990 17044 
3     17044 16990 17045 
3     17045 16990 17046 
3     16990 16991 17046 
3     17046 16991 17047 
3     16991 16992 17047 
3     16992 16993 17047 
3     17047 16993 17048 
3     17048 16993 17049 
3     17049 16993 17050 
3     16993 16994 17050 
3     16994 16995 17050 
3     17050 16995 17051 
3     17051 16995 17052 
3     16995 16996 17052 
3     16996 16997 17052 
3     17052 16997 17053 
3     16997 16998 17053 
3     17053 16998 17054 
3     16998 16999 17054 
3     16999 17055 17054 
3     17054 17055 17056 
3     17056 17055 17057 
3     17055 16999 17057 
3     16999 17000 17057 
3     17000 17001 17057 
3     17001 17002 17057 
3     17057 17002 17058 
3     17058 17002 17059 
3     17002 17003 17059 
3     17059 17003 17060 
3     17060 17003 17061 
3     17003 17004 17061 
3     17061 17004 17062 
3     17004 17006 17062 
3     17062 17006 17063 
3     17006 17007 17063 
3     17064 17063 17065 
3     17063 17007 17065 
3     17007 17008 17065 
3     17008 17009 17065 
3     17009 17010 17065 
3     17010 17066 17065 
3     17065 17066 17067 
3     17068 17069 17070 
3     17071 17072 17073 
3     17073 17072 17074 
3     17074 17072 17075 
3     17076 17077 17078 
3     17077 17079 17078 
3     17079 17080 17078 
3     17078 17080 17081 
3     17082 17070 17083 
3     17070 17084 17083 
3     17084 17081 17083 
3     17081 17080 17083 
3     17083 17080 17085 
3     17085 17080 17086 
3     17080 17079 17086 
3     17086 17079 17087 
3     17088 17087 17089 
3     17087 17079 17089 
3     17079 17077 17089 
3     17089 17077 17090 
3     17090 17077 17091 
3     17077 17076 17091 
3     17076 17075 17091 
3     17091 17075 17092 
3     17075 17072 17092 
3     17092 17072 17093 
3     17072 17071 17093 
3     17093 17071 17094 
3     17071 17073 17094 
3     17073 17095 17094 
3     17094 17095 17096 
3     17097 17098 17099 
3     17098 17100 17099 
3     17099 17100 17101 
3     17100 17096 17101 
3     17096 17095 17101 
3     17101 17095 17102 
3     17102 17095 17103 
3     17095 17073 17103 
3     17073 17074 17103 
3     17103 17074 17104 
3     17074 17075 17104 
3     17075 17076 17104 
3     17076 17078 17104 
3     17104 17078 17105 
3     17105 17078 17106 
3     17078 17081 17106 
3     17106 17081 17107 
3     17107 17081 17108 
3     17081 17084 17108 
3     17084 17070 17108 
3     17070 17069 17108 
3     17108 17069 17109 
3     17069 17068 17109 
3     17109 17068 17110 
3     17068 17067 17110 
3     17067 17066 17110 
3     17066 17010 17110 
3     17110 17010 17111 
3     17010 17011 17111 
3     17111 17011 17112 
3     17011 17012 17112 
3     17012 17013 17112 
3     17112 17013 17113 
3     17013 17014 17113 
3     17014 17015 17113 
3     17113 17015 17114 
3     17114 17015 17115 
3     17015 17016 17115 
3     17115 17016 17116 
3     17116 17016 17117 
3     17016 17017 17117 
3     17117 17017 17118 
3     17017 17018 17118 
3     17118 17018 17119 
3     17018 17020 17119 
3     17119 17020 17120 
3     17020 17021 17120 
3     17021 17097 17120 
3     17120 17097 17121 
3     17122 17121 17123 
3     17121 17097 17123 
3     17097 17099 17123 
3     17099 17101 17123 
3     17123 17101 17124 
3     17101 17102 17124 
3     17102 17103 17124 
3     17103 17125 17124 
3     17124 17125 17126 
3     17125 17103 17126 
3     17103 17104 17126 
3     17126 17104 17127 
3     17104 17105 17127 
3     17105 17106 17127 
3     17127 17106 17128 
3     17106 17107 17128 
3     17128 17107 17129 
3     17107 17108 17129 
3     17129 17108 17130 
3     17108 17109 17130 
3     17109 17110 17130 
3     17110 17111 17130 
3     17130 17111 17131 
3     17111 17112 17131 
3     17112 17113 17131 
3     17131 17113 17132 
3     17113 17114 17132 
3     17132 17114 17133 
3     17114 17115 17133 
3     17115 17116 17133 
3     17133 17116 17134 
3     17116 17117 17134 
3     17117 17118 17134 
3     17118 17119 17134 
3     17119 17120 17134 
3     17134 17120 17135 
3     17120 17121 17135 
3     17121 17122 17135 
3     17135 17122 17136 
3     17136 17122 17137 
3     17122 17123 17137 
3     17123 17124 17137 
3     17124 17126 17137 
3     17137 17126 17138 
3     17126 17127 17138 
3     17138 17127 17139 
3     17127 17128 17139 
3     17128 17129 17139 
3     17139 17129 17140 
3     17129 17130 17140 
3     17140 17130 17141 
3     17130 17131 17141 
3     17131 17132 17141 
3     17141 17132 17142 
3     17132 17133 17142 
3     17133 17134 17142 
3     17134 17135 17142 
3     17135 17136 17142 
3     17142 17136 17143 
3     17136 17137 17143 
3     17137 17138 17143 
3     17143 17138 17144 
3     17138 17139 17144 
3     17139 17140 17144 
3     17140 17141 17144 
3     17141 17142 17144 
3     17145 17146 17147 
3     17148 17149 17150 
3     17150 17149 17151 
3     17152 17153 17154 
3     17155 17154 17156 
3     17156 17154 17157 
3     17158 17159 17160 
3     17160 17159 17161 
3     17161 17159 17162 
3     17162 17159 17163 
3     17163 17159 17164 
3     17159 17158 17164 
3     17158 17157 17164 
3     17157 17154 17164 
3     17154 17153 17164 
3     17153 17165 17164 
3     17164 17165 17166 
3     17166 17165 17167 
3     17165 17168 17167 
3     17169 17170 17171 
3     17171 17170 17172 
3     17151 17172 17173 
3     17173 17172 17174 
3     17172 17170 17174 
3     17170 17167 17174 
3     17167 17168 17174 
3     17174 17168 17175 
3     17168 17165 17175 
3     17165 17153 17175 
3     17175 17153 17176 
3     17153 17152 17176 
3     17176 17152 17177 
3     17177 17152 17178 
3     17152 17154 17178 
3     17154 17155 17178 
3     17178 17155 17179 
3     17179 17155 17180 
3     17181 17180 17182 
3     17180 17155 17182 
3     17155 17156 17182 
3     17182 17156 17183 
3     17156 17157 17183 
3     17183 17157 17184 
3     17157 17158 17184 
3     17184 17158 17185 
3     17185 17158 17186 
3     17158 17160 17186 
3     17160 17161 17186 
3     17187 17186 17188 
3     17186 17161 17188 
3     17161 17162 17188 
3     17188 17162 17189 
3     17190 17189 17191 
3     17189 17162 17191 
3     17162 17163 17191 
3     17191 17163 17192 
3     17163 17164 17192 
3     17164 17166 17192 
