
2466

3     1145 1196 1175 
3     1158 1175 1197 
3     1128 1176 1193 
3     1159 1176 1174 
3     1159 1177 1176 
3     1159 1176 1162 
3     1145 1196 1177 
3     1160 1178 1198 
3     1178 1199 1129 
3     1179 1200 1146 
3     1129 1201 1180 
3     1162 1180 1174 
3     1162 1202 1180 
3     1162 1180 1203 
3     1146 1200 1181 
3     1162 1204 1181 
3     1183 1184 1153 
3     1166 1205 1183 
3     1166 1206 1167 
3     1167 1207 1182 
3     1160 1184 1208 
3     1154 1185 1209 
3     1168 1185 1210 
3     1168 1211 1186 
3     1186 1212 1143 
3     1143 1187 1213 
3     1169 1187 1192 
3     1169 1188 1187 
3     1169 1189 1187 
3     1169 1170 1172 
3     1155 1190 1189 
3     1170 1172 1190 
3     1170 1214 1188 
3     1170 1214 1172 
3     1171 1191 1195 
3     1156 1215 1191 
3     1156 1197 1192 
3     1169 1192 1172 
3     1172 1216 1192 
3     1172 1192 1214 
3     1173 1217 1193 
3     1157 1195 1194 
3     1173 1194 1218 
3     1179 1219 1158 
3     1175 1215 1196 
3     1175 1196 1186 
3     1175 1196 1197 
3     1175 1212 1197 
3     1175 1197 1156 
3     1158 1197 1216 
3     1176 1220 1193 
3     1174 1176 1220 
3     1177 1221 1176 
3     1176 1220 1162 
3     1177 1196 1186 
3     1177 1215 1196 
3     1177 1196 1222 
3     1160 1223 1198 
3     1178 1199 1198 
3     1178 1224 1198 
3     1178 1198 1225 
3     1199 1208 1178 
3     1178 1199 1200 
3     1199 1226 1129 
3     1179 1219 1200 
3     1178 1179 1200 
3     1179 1227 1200 
3     1129 1201 1228 
3     1180 1201 1174 
3     1180 1228 1201 
3     1180 1201 1229 
3     1162 1202 1204 
3     1202 1230 1180 
3     1162 1220 1203 
3     1180 1231 1203 
3     1181 1199 1200 
3     1181 1200 1232 
3     1181 1200 1227 
3     1204 1232 1181 
3     1181 1204 1199 
3     1204 1233 1181 
3     1183 1234 1184 
3     1205 1206 1166 
3     1205 1234 1183 
3     1206 1207 1167 
3     1184 1208 1235 
3     1160 1236 1208 
3     1185 1209 1237 
3     1185 1210 1238 
3     1168 1215 1210 
3     1168 1211 1239 
3     1211 1239 1186 
3     1211 1240 1186 
3     1186 1211 1241 
3     1175 1212 1186 
3     1186 1242 1212 
3     1186 1212 1240 
3     1143 1212 1213 
3     1187 1213 1197 
3     1189 1213 1187 
3     1187 1213 1242 
3     1187 1197 1192 
3     1187 1188 1242 
3     1172 1216 1190 
3     1191 1195 1243 
3     1175 1215 1156 
3     1191 1215 1244 
3     1192 1222 1197 
3     1192 1197 1216 
3     1192 1222 1214 
3     1217 1245 1173 
3     1193 1203 1217 
3     1173 1245 1218 
3     1219 1224 1179 
3     1179 1227 1219 
3     1158 1219 1216 
3     1196 1222 1197 
3     1212 1213 1197 
3     1220 1221 1176 
3     1203 1220 1193 
3     1174 1203 1220 
3     1177 1221 1186 
3     1215 1221 1177 
3     1177 1246 1221 
3     1177 1246 1222 
3     1160 1223 1225 
3     1198 1223 1226 
3     1198 1225 1223 
3     1198 1223 1224 
3     1198 1199 1226 
3     1178 1224 1179 
3     1178 1236 1225 
3     1199 1226 1208 
3     1208 1236 1178 
3     1204 1226 1199 
3     1226 1247 1129 
3     1200 1219 1232 
3     1174 1201 1228 
3     1228 1248 1201 
3     1129 1228 1217 
3     1180 1228 1231 
3     1180 1230 1229 
3     1201 1249 1229 
3     1204 1232 1202 
3     1202 1204 1247 
3     1202 1233 1204 
3     1202 1232 1230 
3     1202 1247 1230 
3     1202 1233 1230 
3     1203 1220 1248 
3     1174 1203 1231 
3     1203 1231 1217 
3     1228 1231 1203 
3     1181 1233 1227 
3     1234 1250 1184 
3     1206 1251 1205 
3     1205 1252 1234 
3     1206 1253 1207 
3     1184 1235 1254 
3     1208 1236 1235 
3     1226 1235 1208 
3     1208 1235 1255 
3     1160 1225 1236 
3     1208 1255 1236 
3     1185 1237 1238 
3     1209 1256 1237 
3     1210 1238 1257 
3     1168 1215 1221 
3     1210 1215 1244 
3     1168 1239 1258 
3     1239 1241 1211 
3     1211 1239 1259 
3     1239 1258 1186 
3     1211 1240 1259 
3     1186 1242 1241 
3     1213 1242 1212 
3     1189 1212 1240 
3     1189 1213 1212 
3     1191 1244 1243 
3     1218 1245 1260 
3     1219 1227 1216 
3     1220 1221 1248 
3     1221 1248 1186 
3     1221 1248 1246 
3     1223 1247 1225 
3     1225 1261 1223 
3     1223 1247 1226 
3     1223 1262 1224 
3     1225 1236 1235 
3     1225 1236 1263 
3     1204 1226 1247 
3     1226 1235 1247 
3     1247 1254 1129 
3     1174 1231 1228 
3     1203 1228 1248 
3     1248 1264 1201 
3     1228 1231 1217 
3     1129 1254 1217 
3     1229 1265 1230 
3     1229 1230 1266 
3     1229 1230 1233 
3     1249 1267 1201 
3     1249 1266 1229 
3     1229 1249 1265 
3     1249 1268 1229 
3     1230 1232 1266 
3     1247 1265 1230 
3     1234 1269 1250 
3     1184 1250 1270 
3     1251 1253 1206 
3     1205 1251 1271 
3     1205 1272 1252 
3     1252 1269 1234 
3     1207 1273 1253 
3     1184 1254 1274 
3     1235 1247 1254 
3     1235 1275 1255 
3     1255 1276 1236 
3     1237 1238 1277 
3     1209 1278 1256 
3     1237 1256 1279 
3     1238 1257 1280 
3     1210 1244 1257 
3     1168 1248 1221 
3     1168 1258 1281 
3     1258 1282 1239 
3     1239 1258 1283 
3     1239 1241 1283 
3     1239 1284 1259 
3     1258 1281 1186 
3     1240 1259 1285 
3     1244 1257 1243 
3     1245 1286 1260 
3     1248 1264 1186 
3     1248 1287 1246 
3     1225 1247 1235 
3     1225 1261 1263 
3     1261 1288 1223 
3     1262 1288 1223 
3     1236 1276 1263 
3     1235 1275 1247 
3     1168 1264 1248 
3     1248 1287 1264 
3     1264 1267 1201 
3     1217 1254 1274 
3     1229 1268 1233 
3     1249 1266 1267 
3     1249 1289 1267 
3     1267 1268 1249 
3     1249 1289 1265 
3     1265 1275 1247 
3     1269 1290 1250 
3     1184 1270 1274 
3     1250 1291 1270 
3     1253 1292 1251 
3     1205 1271 1272 
3     1251 1293 1271 
3     1272 1294 1252 
3     1252 1295 1269 
3     1273 1292 1253 
3     1265 1275 1255 
3     1275 1296 1255 
3     1255 1275 1297 
3     1255 1298 1276 
3     1255 1296 1276 
3     1255 1299 1276 
3     1238 1277 1280 
3     1237 1279 1277 
3     1278 1300 1256 
3     1256 1301 1279 
3     1257 1280 1302 
3     1168 1281 1264 
3     1281 1283 1258 
3     1258 1281 1303 
3     1258 1282 1304 
3     1282 1284 1239 
3     1259 1284 1305 
3     1259 1282 1284 
3     1259 1284 1285 
3     1264 1281 1186 
3     1243 1257 1302 
3     1245 1306 1286 
3     1261 1263 1296 
3     1263 1307 1261 
3     1261 1308 1263 
3     1288 1309 1261 
3     1261 1288 1296 
3     1261 1308 1288 
3     1262 1310 1288 
3     1263 1296 1276 
3     1263 1276 1311 
3     1263 1276 1299 
3     1264 1281 1287 
3     1264 1267 1281 
3     1217 1274 1270 
3     1266 1267 1312 
3     1267 1289 1312 
3     1267 1268 1312 
3     1265 1289 1292 
3     1265 1289 1255 
3     1265 1289 1313 
3     1265 1275 1292 
3     1265 1297 1275 
3     1290 1295 1269 
3     1250 1290 1291 
3     1270 1291 1314 
3     1251 1315 1292 
3     1271 1293 1272 
3     1272 1316 1271 
3     1271 1272 1317 
3     1251 1309 1293 
3     1271 1318 1293 
3     1271 1293 1316 
3     1293 1294 1272 
3     1294 1317 1272 
3     1272 1294 1262 
3     1294 1310 1252 
3     1295 1296 1252 
3     1273 1319 1292 
3     1275 1296 1292 
3     1255 1299 1297 
3     1298 1320 1255 
3     1276 1298 1311 
3     1277 1280 1321 
3     1277 1279 1322 
3     1300 1323 1278 
3     1300 1324 1256 
3     1256 1324 1301 
3     1279 1301 1325 
3     1280 1302 1321 
3     1281 1283 1287 
3     1281 1312 1303 
3     1258 1304 1303 
3     1304 1326 1282 
3     1304 1320 1282 
3     1282 1285 1304 
3     1282 1320 1284 
3     1282 1285 1284 
3     1284 1320 1305 
3     1259 1326 1282 
3     1286 1327 1306 
3     1263 1315 1307 
3     1307 1309 1261 
3     1263 1308 1299 
3     1288 1309 1293 
3     1252 1288 1296 
3     1308 1310 1288 
3     1262 1310 1294 
3     1288 1310 1252 
3     1288 1310 1293 
3     1263 1315 1311 
3     1267 1312 1281 
3     1217 1270 1327 
3     1266 1312 1326 
3     1289 1328 1312 
3     1303 1312 1268 
3     1289 1328 1292 
3     1289 1328 1255 
3     1313 1328 1289 
3     1265 1297 1313 
3     1295 1329 1290 
3     1270 1314 1327 
3     1251 1315 1307 
3     1311 1315 1292 
3     1272 1316 1262 
3     1271 1318 1317 
3     1251 1309 1307 
3     1293 1330 1309 
3     1293 1309 1318 
3     1293 1330 1316 
3     1294 1310 1293 
3     1294 1317 1308 
3     1294 1310 1308 
3     1296 1331 1295 
3     1273 1332 1319 
3     1319 1333 1292 
3     1292 1333 1296 
3     1298 1320 1292 
3     1298 1334 1320 
3     1298 1320 1305 
3     1320 1328 1255 
3     1298 1311 1292 
3     1305 1311 1298 
3     1298 1311 1335 
3     1277 1321 1336 
3     1279 1325 1322 
3     1277 1322 1336 
3     1323 1324 1300 
3     1278 1323 1332 
3     1301 1324 1337 
3     1301 1338 1325 
3     1303 1328 1312 
3     1303 1312 1326 
3     1304 1326 1303 
3     1303 1304 1328 
3     1285 1304 1303 
3     1304 1320 1328 
3     1327 1339 1286 
3     1307 1335 1315 
3     1307 1315 1330 
3     1307 1335 1309 
3     1307 1330 1309 
3     1305 1311 1315 
3     1311 1335 1315 
3     1285 1303 1268 
3     1320 1328 1292 
3     1313 1328 1334 
3     1329 1331 1295 
3     1314 1327 1339 
3     1309 1335 1318 
3     1331 1333 1296 
3     1332 1340 1319 
3     1319 1341 1333 
3     1298 1334 1335 
3     1320 1328 1334 
3     1322 1325 1342 
3     1322 1336 1343 
3     1324 1344 1323 
3     1323 1340 1332 
3     1324 1337 1344 
3     1301 1337 1338 
3     1325 1338 1342 
3     1305 1315 1330 
3     1329 1345 1331 
3     1333 1345 1331 
3     1319 1340 1341 
3     1341 1345 1333 
3     1322 1342 1343 
3     1344 1346 1323 
3     1323 1346 1340 
3     1337 1344 1347 
3     1338 1342 1348 
3     1345 1349 1329 
3     1340 1350 1341 
3     1341 1351 1345 
3     1342 1343 1348 
3     1344 1352 1346 
3     1346 1350 1340 
3     1347 1352 1344 
3     1349 1351 1345 
3     1341 1350 1351 
3     1352 1353 1346 
3     1346 1353 1350 
3     1347 1354 1352 
3     1351 1355 1349 
3     1350 1355 1351 
3     1352 1354 1353 
3     1353 1356 1350 
3     1347 1357 1354 
3     1350 1356 1355 
3     1354 1358 1353 
3     1353 1358 1356 
3     1354 1357 1358 
3     1359 1360 1361 
3     1360 720 1359 
3     1361 1362 1360 
3     1359 708 1361 
3     720 765 1360 
3     720 732 1359 
3     1362 1363 1361 
3     1360 1362 1364 
3     708 732 1359 
3     701 708 1361 
3     720 765 733 
3     765 788 1360 
3     1362 1363 1365 
3     1363 1366 1361 
3     1364 1365 1362 
3     1360 1367 1364 
3     693 701 1361 
3     788 813 1360 
3     1363 1368 1365 
3     1366 1369 1361 
3     1364 1370 1365 
3     1367 816 1360 
3     1367 816 1364 
3     685 693 1361 
3     792 813 1360 
3     1368 1371 1365 
3     1369 680 1361 
3     1370 1372 1364 
3     1370 1373 1365 
3     816 1374 1367 
3     792 816 1360 
3     816 1372 1364 
3     680 685 1361 
3     1371 1375 1365 
3     1373 1376 1365 
3     1374 1377 1367 
3     1375 1378 1365 
3     1376 1379 1365 
3     1377 877 1367 
3     1378 1380 1365 
3     1365 1379 1381 
3     1379 1380 1365 
3     877 1382 1367 
3     1379 1383 1381 
3     877 1384 1382 
3     1383 1385 1381 
3     1384 843 1382 
3     1385 1386 1381 
3     843 1387 1382 
3     1381 1386 1388 
3     843 1389 1387 
3     1386 1390 1388 
3     1389 1391 1387 
3     1390 1392 1388 
3     1391 930 1387 
3     1388 1392 1393 
3     909 930 1387 
3     1392 1394 1393 
3     909 1395 1387 
3     1394 1396 1393 
3     909 1397 1395 
3     1396 1398 1393 
3     1397 1399 1395 
3     1393 1398 1400 
3     1399 1003 1395 
3     1398 957 1400 
3     1003 1401 1395 
3     957 1402 1400 
3     1003 1403 1401 
3     1402 1404 1400 
3     1403 1405 1401 
3     1400 1404 1406 
3     1405 1407 1401 
3     1404 1408 1406 
3     1406 1407 1401 
3     1408 1409 1406 
3     1407 1409 1406 
3     1410 1411 1412 
3     1411 1101 1412 
3     1410 1412 1413 
3     1411 1414 1101 
3     1410 1413 1415 
3     1411 1416 1414 
3     1410 1417 1415 
3     1416 1070 1414 
3     1417 1418 1415 
3     1416 1070 1052 
3     1417 1419 1418 
3     1416 1069 1052 
3     1417 1419 1420 
3     1416 1069 1421 
3     1416 1069 1012 
3     1417 1420 1422 
3     1416 1423 1421 
3     1416 1424 1012 
3     1033 1069 1012 
3     1417 1425 1422 
3     1416 1423 1424 
3     1423 1426 1421 
3     1424 992 1012 
3     1422 1425 1086 
3     1424 1427 1423 
3     1423 1428 1426 
3     1424 992 919 
3     1425 1429 1086 
3     1424 1430 1427 
3     1427 1431 1423 
3     1423 1431 1428 
3     1424 892 919 
3     944 992 919 
3     1425 1429 1053 
3     1424 1430 779 
3     1427 1432 1430 
3     1427 1431 780 
3     1431 1433 1428 
3     1424 892 861 
3     1425 1434 1053 
3     1424 830 779 
3     1430 1432 779 
3     1427 1432 716 
3     1431 803 780 
3     1427 743 780 
3     1431 832 1433 
3     1424 830 861 
3     1053 1434 1435 
3     1432 757 779 
3     1427 725 716 
3     1432 716 726 
3     1431 803 804 
3     1427 743 725 
3     743 758 780 
3     1431 1436 832 
3     1431 832 804 
3     1434 1437 1435 
3     1432 757 726 
3     803 831 804 
3     1436 862 832 
3     1434 1437 1015 
3     742 757 726 
3     1436 862 893 
3     1434 1438 1015 
3     1436 895 893 
3     1015 1438 994 
3     1436 1439 895 
3     1438 968 994 
3     1439 921 895 
3     1438 968 922 
3     1439 863 921 
3     1438 1440 922 
3     1439 863 894 
3     922 1440 945 
3     1439 1440 894 
3     1440 920 945 
3     1440 920 894 
3     342 354 1441 
3     342 1441 1442 
3     354 1443 1441 
3     338 342 1442 
3     1441 1442 1444 
3     354 359 1443 
3     1441 1443 1445 
3     1442 338 1446 
3     1442 1444 1447 
3     1441 1445 1444 
3     359 1448 1443 
3     1443 1449 1445 
3     1442 1446 1447 
3     338 339 1446 
3     1444 1447 1450 
3     1444 1445 1451 
3     359 362 1448 
3     1443 1448 1449 
3     1445 1449 1452 
3     1446 1447 1453 
3     1446 339 1454 
3     1447 1450 1455 
3     1444 1451 1450 
3     1445 1452 1451 
3     362 1456 1448 
3     1448 1457 1449 
3     1449 1458 1452 
3     1447 1453 1455 
3     1446 1454 1453 
3     339 1459 1454 
3     1450 1455 1460 
3     1450 1451 1461 
3     1451 1452 1462 
3     362 374 1456 
3     1448 1456 1457 
3     1449 1457 1458 
3     1452 1458 1463 
3     1453 1455 1464 
3     1453 1454 1465 
3     337 339 1459 
3     1454 1459 1465 
3     1455 1460 1466 
3     1450 1461 1460 
3     1451 1462 1461 
3     1452 1463 1462 
3     1455 1464 1466 
3     1453 1465 1464 
3     337 1467 1459 
3     1459 1465 1468 
3     1460 1469 1466 
3     1461 1470 1460 
3     1462 1471 1461 
3     1463 1472 1462 
3     1464 1466 1473 
3     1464 1465 1474 
3     333 337 1467 
3     1459 1467 1468 
3     1465 1468 1474 
3     1460 1470 1469 
3     1466 1469 1475 
3     1461 1471 1470 
3     1462 1472 1471 
3     1463 1476 1472 
3     1466 1475 1473 
3     1464 1474 1473 
3     333 1477 1467 
3     1467 1468 1478 
3     1468 1474 1479 
3     1470 1480 1469 
3     1469 1481 1475 
3     1471 1482 1470 
3     1472 1483 1471 
3     1476 1484 1472 
3     1473 1475 1485 
3     1473 1474 1486 
3     333 334 1477 
3     1467 1477 1487 
3     1467 1487 1478 
3     1468 1478 1479 
3     1474 1479 1486 
3     1470 1482 1480 
3     1469 1480 1481 
3     1475 1481 1488 
3     1471 1483 1482 
3     1472 1484 1483 
3     1476 1489 1484 
3     1475 1488 1485 
3     1473 1485 1486 
3     334 1490 1477 
3     1477 1491 1487 
3     1478 1487 1492 
3     1478 1479 1492 
3     1479 1486 1493 
3     1482 1494 1480 
3     1480 1495 1481 
3     1481 1496 1488 
3     1483 1497 1482 
3     1484 1498 1483 
3     1489 1499 1484 
3     1485 1488 1500 
3     1485 1486 1501 
3     1477 1490 1491 
3     1487 1491 1502 
3     1487 1492 1503 
3     1479 1492 1493 
3     1486 1501 1493 
3     1482 1497 1494 
3     1480 1494 1495 
3     1481 1495 1496 
3     1488 1496 1504 
3     1483 1498 1497 
3     1484 1499 1498 
3     1489 1505 1499 
3     1488 1504 1500 
3     1485 1500 1501 
3     1490 147 1491 
3     1487 1502 1503 
3     1491 1506 1502 
3     1492 1503 1507 
3     1492 1493 1507 
3     1493 1501 1508 
3     1497 474 1494 
3     1494 485 1495 
3     1495 486 1496 
3     1496 486 1504 
3     1498 471 1497 
3     1499 466 1498 
3     1505 463 1499 
3     1500 1504 1509 
3     1500 1501 1510 
3     1491 147 156 
3     1502 1503 1511 
3     1491 156 1506 
3     1502 1506 1511 
3     1503 1507 1512 
3     1493 1508 1507 
3     1501 1510 1508 
3     1497 471 474 
3     1494 474 485 
3     1495 485 486 
3     1504 486 487 
3     1498 466 471 
3     1499 463 466 
3     1505 451 463 
3     1504 487 1509 
3     1500 1509 1510 
3     1503 1511 1512 
3     1506 156 168 
3     1506 1511 1513 
3     1507 1514 1512 
3     1507 1508 1514 
3     1508 1510 1515 
3     1509 487 490 
3     1509 1510 1515 
3     1511 1512 1516 
3     168 1513 1506 
3     1511 1513 1516 
3     1512 1514 1517 
3     1508 1515 1514 
3     1509 490 1518 
3     1509 1515 1518 
3     1512 1517 1516 
3     1513 186 168 
3     1513 1516 186 
3     1514 1519 1517 
3     1514 1515 1519 
3     490 1518 491 
3     1515 1518 1520 
3     1516 1517 1521 
3     1516 1521 186 
3     1517 1519 1522 
3     1515 1520 1519 
3     1518 491 1523 
3     1518 1523 1520 
3     1517 1522 1521 
3     186 212 1521 
3     1519 1520 1522 
3     1520 1523 233 
3     1522 212 1521 
3     1520 1522 224 
3     1520 233 224 
3     1522 212 224 
3     1524 1525 1526 
3     1524 1525 1527 
3     1526 1528 1524 
3     1525 1529 1527 
3     1524 1527 1530 
3     1528 1531 1524 
3     1527 1529 1532 
3     1524 1531 1530 
3     1527 1533 1530 
3     1528 1531 1534 
3     1527 1535 1532 
3     1531 1536 1530 
3     1527 1535 1533 
3     1533 1537 1530 
3     1531 1538 1534 
3     1536 1539 1531 
3     1536 1540 1530 
3     1535 1541 1533 
3     1533 1542 1537 
3     1537 1543 1530 
3     1538 1539 1531 
3     1536 1539 1544 
3     1540 1545 1536 
3     1540 1543 1530 
3     1533 1541 1546 
3     1533 1542 1547 
3     1542 1548 1537 
3     1537 1549 1543 
3     1536 1550 1544 
3     1540 1545 1551 
3     1545 1552 1536 
3     1543 1553 1540 
3     1533 1546 1547 
3     1541 1554 1546 
3     1537 1549 1548 
3     1549 1555 1543 
3     1536 1552 1550 
3     1540 1556 1551 
3     1543 1553 1557 
3     1553 1556 1540 
3     1546 1558 1547 
3     1543 1555 1557 
3     1112 1559 1560 
3     1559 1561 1112 
3     1559 1562 1560 
3     1561 1563 1559 
3     1112 1561 1081 
3     1559 1563 1562 
3     1560 1562 1564 
3     1563 1565 1561 
3     1561 1565 1081 
3     1563 1566 1562 
3     1564 1566 1562 
3     1560 1564 1567 
3     1565 1568 1563 
3     1081 1565 1049 
3     1566 1569 1563 
3     1566 1570 1564 
3     1564 1570 1567 
3     1568 1571 1565 
3     1568 1569 1563 
3     1565 1009 1049 
3     1566 1572 1569 
3     1570 1573 1566 
3     1570 1278 1567 
3     1571 1574 1568 
3     1565 1571 1009 
3     1569 1575 1568 
3     1572 1573 1566 
3     1572 1576 1569 
3     1573 1278 1570 
3     1574 1577 1571 
3     1574 1575 1568 
3     1571 987 1009 
3     1569 1576 1575 
3     1573 1578 1572 
3     1572 1579 1576 
3     1278 1580 1573 
3     1577 1581 1574 
3     1577 987 1571 
3     1575 1582 1574 
3     1576 1582 1575 
3     1573 1580 1578 
3     1572 1578 1579 
3     1576 1579 1583 
3     1278 1584 1580 
3     1577 1585 1581 
3     1581 1582 1574 
3     987 1586 1577 
3     1576 1587 1582 
3     1580 1588 1578 
3     1578 1589 1579 
3     1579 1590 1583 
3     1576 1583 1591 
3     1580 1584 1588 
3     1585 1586 1577 
3     1585 1592 1581 
3     1581 1592 1582 
3     1586 937 987 
3     1576 1591 1587 
3     1587 1592 1582 
3     1578 1588 1593 
3     1578 1593 1589 
3     1579 1589 1590 
3     1583 1590 1594 
3     1583 1594 1591 
3     1584 1588 1595 
3     1586 161 1585 
3     1585 171 1592 
3     1586 153 937 
3     1587 1596 1591 
3     1592 1597 1587 
3     1588 1593 1595 
3     1589 1593 1598 
3     1589 1590 1599 
3     1590 1594 1600 
3     1591 1601 1594 
3     1586 154 161 
3     161 162 1585 
3     1585 162 171 
3     1592 1549 171 
3     153 154 1586 
3     152 153 937 
3     1587 1597 1596 
3     1591 1596 1601 
3     1592 1597 1542 
3     1593 1595 1598 
3     1589 1598 1602 
3     1589 1599 1602 
3     1590 1600 1599 
3     1594 1603 1600 
3     1594 1601 1603 
3     1592 1549 1548 
3     1549 1555 171 
3     1596 1529 1597 
3     1596 1604 1601 
3     1597 1547 1542 
3     1592 1548 1542 
3     1595 1598 1207 
3     1598 1207 1602 
3     1602 1182 1599 
3     1599 1136 1600 
3     1600 1603 1135 
3     1601 1604 1603 
3     1555 1557 171 
3     1596 1525 1529 
3     1529 1532 1597 
3     1596 209 1604 
3     1597 1558 1547 
3     1602 1207 1182 
3     1599 1182 1165 
3     1599 1165 1136 
3     1600 1135 1136 
3     1603 1605 1135 
3     1603 1604 1605 
3     171 1557 1553 
3     1596 209 1525 
3     1597 1532 1535 
3     209 218 1604 
3     1597 1558 1546 
3     1135 1605 1116 
3     1604 219 1605 
3     171 1553 179 
3     209 1526 1525 
3     1597 1541 1535 
3     1604 218 219 
3     1546 1554 1597 
3     1605 227 1116 
3     219 226 1605 
3     1553 1556 179 
3     209 1528 1526 
3     1597 1554 1541 
3     1605 226 227 
3     1116 227 232 
3     1551 1556 179 
3     209 1534 1528 
3     1545 1551 179 
3     209 1534 201 
3     1545 200 179 
3     1534 1538 201 
3     200 1552 1545 
3     1538 1539 201 
3     200 1550 1552 
3     1539 1544 201 
3     200 201 1550 
3     201 1544 1550 
3     1606 835 837 
3     835 974 1606 
3     1606 837 1607 
3     867 974 835 
3     943 974 1606 
3     837 1607 839 
3     1606 1608 1607 
3     1606 943 1608 
3     1607 839 1609 
3     1607 1608 1610 
3     943 1611 1608 
3     1607 1610 1609 
3     839 1609 872 
3     1608 1612 1610 
3     1608 1611 1612 
3     1609 1610 1613 
3     1609 872 1614 
3     1610 1612 1615 
3     1611 800 1612 
3     1610 1615 1613 
3     1609 1613 1614 
3     872 1614 926 
3     1612 1616 1615 
3     1612 800 1616 
3     1613 1615 1617 
3     1613 1614 1618 
3     1614 926 1619 
3     1615 1616 1620 
3     800 1621 1616 
3     1615 1620 1617 
3     1613 1617 1618 
3     1614 1618 1619 
3     926 1619 1622 
3     1616 1623 1620 
3     800 1624 1621 
3     1616 1621 1623 
3     1617 1620 1625 
3     1617 1618 1626 
3     1618 1619 1627 
3     1619 1622 1628 
3     1620 1623 1629 
3     1624 1630 1621 
3     1621 1631 1623 
3     1620 1629 1625 
3     1617 1625 1626 
3     1618 1626 1627 
3     1619 1627 1628 
3     1622 1628 971 
3     1623 1632 1629 
3     1624 1633 1630 
3     1621 1630 1631 
3     1623 1631 1632 
3     1625 1629 1634 
3     1625 1626 1635 
3     1626 1627 1636 
3     1627 1628 1637 
3     1628 1638 971 
3     1629 1632 1639 
3     1629 1639 1634 
3     1625 1634 1635 
3     1626 1635 1636 
3     1627 1636 1637 
3     1628 1637 1640 
3     1628 1641 1638 
3     1634 1639 993 
3     1634 1635 1642 
3     1635 1636 1643 
3     1636 1637 1644 
3     1637 1640 1645 
3     1628 1646 1640 
3     1628 1641 1646 
3     1634 993 1642 
3     1635 1642 1643 
3     1636 1643 1644 
3     1637 1644 1645 
3     1640 1645 1646 
3     1641 1646 1647 
3     993 1642 1014 
3     1642 1643 1648 
3     1643 1644 1649 
3     1644 1645 1650 
3     1645 1646 1651 
3     1646 1651 1647 
3     1641 1647 1652 
3     1642 1014 1648 
3     1643 1648 1649 
3     1644 1649 1650 
3     1645 1650 1651 
3     1647 1651 1653 
3     1647 1652 1150 
3     1014 1648 1654 
3     1648 1649 1655 
3     1649 1650 1656 
3     1650 1651 1657 
3     1651 1657 1653 
3     1647 1653 1120 
3     1647 1150 1658 
3     1648 1654 1655 
3     1649 1655 1656 
3     1650 1656 1657 
3     1653 1657 1659 
3     1647 1658 1120 
3     1653 1659 1120 
3     1654 1655 1660 
3     1655 1656 1661 
3     1656 1657 1662 
3     1657 1662 1659 
3     1659 1663 1120 
3     1655 1660 1661 
3     1656 1661 1662 
3     1659 1662 1664 
3     1659 1664 1663 
3     1660 1661 1665 
3     1661 1662 1666 
3     1662 1666 1664 
3     1663 1664 1133 
3     1661 1665 1666 
3     1666 1133 1664 
3     1665 1666 1132 
3     1666 1667 1133 
3     1666 1667 1132 
3     1668 1669 1670 
3     1668 1671 1669 
3     1668 1110 1670 
3     1669 1670 1672 
3     1671 1673 1668 
3     1671 1674 1669 
3     1110 1673 1668 
3     1670 1110 1675 
3     1670 1676 1672 
3     1669 1677 1672 
3     1673 1678 1671 
3     1671 1679 1674 
3     1669 1674 1677 
3     1110 1680 1673 
3     1670 1675 1140 
3     1670 1676 1681 
3     1672 1676 1682 
3     1672 1677 1682 
3     1678 1683 1673 
3     1678 1679 1671 
3     1679 1684 1674 
3     1674 1685 1677 
3     1680 1683 1673 
3     1670 1140 1686 
3     1670 1681 1686 
3     1676 1681 1687 
3     1682 1688 1676 
3     1677 1688 1682 
3     1678 1689 1683 
3     1679 1690 1678 
3     1684 1691 1679 
3     1674 1684 1685 
3     1677 1685 1688 
3     1683 1126 1680 
3     1676 1687 950 
3     1688 1692 1676 
3     1689 1690 1678 
3     1683 1126 1689 
3     1690 1691 1679 
3     1691 1693 1684 
3     1684 1694 1685 
3     1685 1695 1688 
3     1676 950 1696 
3     1688 1695 1692 
3     1676 1692 1697 
3     1690 1698 1689 
3     1126 1699 1689 
3     1691 1700 1690 
3     1693 1701 1691 
3     1693 1694 1684 
3     1685 1694 1695 
3     1676 1697 1696 
3     1695 1702 1692 
3     1692 1703 1697 
3     1698 1700 1690 
3     1698 1125 1689 
3     1689 1125 1699 
3     1700 1701 1691 
3     1701 1002 1693 
3     1693 1704 1694 
3     1694 1705 1695 
3     1696 1697 905 
3     1695 1705 1702 
3     1692 1702 1703 
3     1697 1703 1706 
3     1002 1704 1693 
3     1704 1705 1694 
3     1697 1706 905 
3     1705 1707 1702 
3     1702 1708 1703 
3     1703 1709 1706 
3     978 1002 1704 
3     1704 1710 1705 
3     905 1706 850 
3     1707 1710 1705 
3     1702 1707 1708 
3     1703 1708 1709 
3     1706 1709 1711 
3     978 1710 1704 
3     1706 1711 850 
3     1710 1712 1707 
3     1707 1713 1708 
3     1708 1714 1709 
3     1709 1715 1711 
3     978 1716 1710 
3     850 1711 821 
3     1712 1716 1710 
3     1712 1713 1707 
3     1708 1713 1714 
3     1709 1714 1715 
3     1711 1715 1717 
3     1711 1717 821 
3     1716 1718 1712 
3     1712 1719 1713 
3     1713 1720 1714 
3     1714 1721 1715 
3     1715 1722 1717 
3     821 1717 819 
3     1718 1719 1712 
3     1719 1720 1713 
3     1714 1720 1721 
3     1715 1721 1722 
3     1717 1722 1723 
3     1717 1723 819 
3     1718 1724 1719 
3     1719 1725 1720 
3     1720 683 1721 
3     1721 1726 1722 
3     1722 722 1723 
3     819 1723 817 
3     1724 1725 1719 
3     1725 683 1720 
3     1721 683 1726 
3     1722 1726 722 
3     1723 722 753 
3     1723 753 817 
3     1724 1727 1725 
3     1725 1728 683 
3     817 753 797 
3     1727 1728 1725 
3     1727 1729 1728 
3     1759 1760 1764 
3     1758 1763 1760 
3     1757 1758 1763 
3     1756 1757 1762 
3     1750 1755 1744 
3     1738 1740 1735 
3     1738 1743 1740 
3     1743 1748 1745 
3     1748 1753 1750 
3     1753 1758 1755 
3     1733 1737 1735 
3     1737 1742 1738 
3     1742 1747 1743 
3     1752 1753 1747 
3     1752 1757 1753 
3     1736 1737 1732 
3     1736 1741 1742 
3     1746 1747 1741 
3     1746 1751 1752 
3     1756 1757 1751 
3     1731 1732 1733 
3     1731 1733 1730 
3     1730 1733 1735 
3     1730 1734 1735 
3     1789 1791 1788 
3     1787 1789 1791 
3     1787 1791 1790 
3     1786 1787 1790 
3     1762 1767 1766 
3     1766 1767 1771 
3     1772 1777 1776 
3     1776 1777 1781 
3     1782 1787 1786 
3     1762 1763 1768 
3     1768 1773 1772 
3     1772 1773 1778 
3     1777 1778 1783 
3     1782 1783 1789 
3     1763 1765 1770 
3     1768 1770 1775 
3     1773 1775 1780 
3     1778 1780 1785 
3     1785 1789 1783 
3     1769 1774 1780 
3     1760 1764 1765 
3     1760 1763 1765 
3     1757 1763 1762 
3     1756 1762 1761 
3     1734 1740 1735 
3     1754 1760 1759 
3     1739 1740 1734 
3     1749 1760 1754 
3     1739 1745 1740 
3     1744 1760 1749 
3     1739 1750 1745 
3     1744 1755 1760 
3     1744 1750 1739 
3     1740 1743 1745 
3     1745 1748 1750 
3     1750 1753 1755 
3     1755 1758 1760 
3     1735 1737 1738 
3     1738 1742 1743 
3     1743 1747 1748 
3     1747 1753 1748 
3     1753 1757 1758 
3     1732 1737 1733 
3     1736 1742 1737 
3     1741 1747 1742 
3     1746 1752 1747 
3     1751 1757 1752 
3     1762 1766 1761 
3     1767 1771 1772 
3     1772 1776 1771 
3     1777 1781 1782 
3     1782 1786 1781 
3     1762 1768 1767 
3     1768 1772 1767 
3     1772 1778 1777 
3     1777 1783 1782 
3     1782 1789 1787 
3     1763 1770 1768 
3     1768 1775 1773 
3     1773 1780 1778 
3     1778 1785 1783 
3     1765 1769 1764 
3     1784 1789 1788 
3     1769 1770 1765 
3     1784 1785 1789 
3     1769 1775 1770 
3     1779 1785 1784 
3     1769 1780 1775 
3     1774 1785 1779 
3     1774 1780 1785 
3     1804 1764 1759 
3     1756 1761 1803 
3     1799 1801 1751 
3     1751 1799 1746 
3     1795 1797 1741 
3     1741 1795 1736 
3     1792 1793 1732 
3     1801 1802 1800 
3     1798 1800 1797 
3     1797 1798 1796 
3     1795 1796 1794 
3     1793 1794 1734 
3     1802 1759 1754 
3     1800 1754 1749 
3     1798 1749 1744 
3     1796 1744 1739 
3     1734 1739 1794 
3     1731 1732 1792 
3     1731 1792 1730 
3     1792 1734 1730 
3     1813 1791 1788 
3     1790 1791 1813 
3     1813 1790 1786 
3     1812 1784 1788 
3     1810 1812 1784 
3     1808 1810 1779 
3     1806 1808 1774 
3     1804 1806 1769 
3     1811 1813 1788 
3     1809 1811 1812 
3     1807 1809 1810 
3     1805 1806 1807 
3     1803 1805 1806 
3     1781 1811 1786 
3     1776 1781 1809 
3     1771 1807 1776 
3     1766 1771 1805 
3     1761 1803 1766 
3     1759 1804 1802 
3     1756 1803 1801 
3     1751 1801 1756 
3     1746 1799 1797 
3     1741 1797 1746 
3     1736 1795 1793 
3     1732 1793 1736 
3     1800 1801 1799 
3     1797 1800 1799 
3     1796 1797 1795 
3     1794 1795 1793 
3     1734 1793 1792 
3     1754 1802 1800 
3     1749 1800 1798 
3     1744 1798 1796 
3     1739 1796 1794 
3     1810 1784 1779 
3     1808 1779 1774 
3     1806 1774 1769 
3     1804 1769 1764 
3     1811 1788 1812 
3     1809 1812 1810 
3     1807 1810 1808 
3     1806 1807 1808 
3     1803 1806 1804 
3     1811 1786 1813 
3     1809 1781 1811 
3     1807 1776 1809 
3     1805 1771 1807 
3     1803 1766 1805 
3     1814 1815 1816 
3     1814 1816 1817 
3     1814 1817 1818 
3     1814 1818 1819 
3     1814 1819 1820 
3     1814 1820 1821 
3     1814 1821 1822 
3     1814 1822 1815 
3     1815 1816 1823 
3     1823 1824 1816 
3     1816 1817 1824 
3     1824 1825 1817 
3     1817 1818 1825 
3     1825 1826 1818 
3     1818 1819 1826 
3     1826 1827 1819 
3     1819 1820 1827 
3     1827 1828 1820 
3     1820 1821 1828 
3     1828 1829 1821 
3     1821 1822 1829 
3     1829 1830 1822 
3     1815 1822 1830 
3     1823 1830 1815 
3     1823 1824 1831 
3     1831 1832 1824 
3     1824 1825 1832 
3     1832 1833 1825 
3     1825 1826 1833 
3     1833 1834 1826 
3     1826 1827 1834 
3     1834 1835 1827 
3     1827 1828 1835 
3     1835 1836 1828 
3     1828 1829 1836 
3     1836 1837 1829 
3     1829 1830 1837 
3     1837 1838 1830 
3     1823 1830 1838 
3     1831 1838 1823 
3     1831 1832 1839 
3     1839 1840 1832 
3     1832 1833 1840 
3     1840 1841 1833 
3     1833 1834 1841 
3     1841 1842 1834 
3     1834 1835 1842 
3     1842 1843 1835 
3     1835 1836 1843 
3     1843 1844 1836 
3     1836 1837 1844 
3     1844 1845 1837 
3     1837 1838 1845 
3     1845 1846 1838 
3     1831 1838 1846 
3     1839 1846 1831 
3     1839 1840 1847 
3     1847 1848 1840 
3     1840 1841 1848 
3     1848 1849 1841 
3     1841 1842 1849 
3     1849 1850 1842 
3     1842 1843 1850 
3     1850 1851 1843 
3     1843 1844 1851 
3     1851 1852 1844 
3     1844 1845 1852 
3     1852 1853 1845 
3     1845 1846 1853 
3     1853 1854 1846 
3     1839 1846 1854 
3     1847 1854 1839 
3     1847 1848 1855 
3     1855 1856 1848 
3     1848 1849 1856 
3     1856 1857 1849 
3     1849 1850 1857 
3     1857 1858 1850 
3     1850 1851 1858 
3     1858 1859 1851 
3     1851 1852 1859 
3     1859 1860 1852 
3     1852 1853 1860 
3     1860 1861 1853 
3     1853 1854 1861 
3     1861 1862 1854 
3     1847 1854 1862 
3     1855 1862 1847 
3     1855 1856 1863 
3     1856 1857 1863 
3     1857 1858 1863 
3     1858 1859 1863 
3     1859 1860 1863 
3     1860 1861 1863 
3     1861 1862 1863 
3     1855 1862 1863 
3     1909 1329 1864 
3     1882 1886 1880 
3     1869 1886 1885 
3     1881 1884 1893 
3     1881 1893 1871 
3     1864 1243 1879 
3     1864 1867 1879 
3     1867 1871 1879 
3     1879 1893 1894 
3     1243 1865 1878 
3     1878 1879 1895 
3     1321 1866 1877 
3     1865 1321 1877 
3     1877 1878 1892 
3     1866 1868 1876 
3     1868 1869 1875 
3     1875 1876 1890 
3     1876 1877 1891 
3     1874 1875 1889 
3     1873 1888 1889 
3     1872 1887 1888 
3     1880 1882 1883 
3     1870 1883 1887 
3     1869 1880 1870 
3     1869 1870 1872 
3     1869 1872 1873 
3     1869 1873 1874 
3     1869 1875 1874 
3     1902 1908 1903 
3     1901 1902 1908 
3     1900 1901 1908 
3     1898 1900 1908 
3     1897 1898 1908 
3     1883 1887 1898 
3     1882 1883 1897 
3     1887 1888 1900 
3     1888 1889 1901 
3     1889 1902 1903 
3     1891 1904 1905 
3     1890 1903 1904 
3     1903 1908 1909 
3     1904 1909 1911 
3     1892 1905 1906 
3     1905 1355 1912 
3     1905 1911 1355 
3     1895 1906 1907 
3     1906 1912 1329 
3     1894 1907 1893 
3     1907 1910 1899 
3     1907 1913 1910 
3     1907 1329 1913 
3     1896 1899 1893 
3     1893 1896 1884 
3     1908 1909 1885 
3     1882 1897 1886 
3     1355 1329 1912 
3     1899 1913 1910 
3     1881 1896 1884 
3     1864 1871 1867 
3     1243 1321 1865 
3     1866 1909 1868 
3     1911 1329 1355 
3     1896 1913 1899 
3     1864 1881 1871 
3     1243 1866 1321 
3     1909 1329 1911 
3     1881 1913 1896 
3     1243 1909 1866 
3     1881 1329 1913 
3     1864 1909 1243 
3     1864 1329 1881 
3     1880 1886 1869 
3     1869 1885 1868 
3     1871 1879 1893 
3     1243 1878 1879 
3     1879 1895 1894 
3     1865 1877 1878 
3     1878 1892 1895 
3     1866 1876 1877 
3     1868 1875 1876 
3     1876 1890 1891 
3     1877 1891 1892 
3     1875 1889 1890 
3     1873 1889 1874 
3     1872 1888 1873 
3     1880 1883 1870 
3     1870 1887 1872 
3     1887 1898 1900 
3     1883 1897 1898 
3     1888 1900 1901 
3     1889 1901 1902 
3     1889 1903 1890 
3     1891 1905 1892 
3     1890 1904 1891 
3     1903 1909 1904 
3     1904 1911 1905 
3     1892 1906 1895 
3     1905 1912 1906 
3     1895 1907 1894 
3     1906 1329 1907 
3     1899 1907 1893 
3     1885 1908 1886 
3     1886 1897 1908 
3     1914 1915 1926 
3     1926 1927 1915 
3     1915 1916 1927 
3     1927 1928 1916 
3     1916 1917 1928 
3     1928 1929 1917 
3     1917 1918 1929 
3     1929 1930 1918 
3     1918 1919 1930 
3     1930 1931 1919 
3     1919 1920 1931 
3     1931 1932 1920 
3     1920 1921 1932 
3     1932 1933 1921 
3     1921 1922 1933 
3     1933 1934 1922 
3     1922 1923 1934 
3     1934 1935 1923 
3     1923 1924 1935 
3     1935 1936 1924 
3     1924 1925 1936 
3     1936 1937 1925 
3     1914 1925 1937 
3     1926 1937 1914 
3     1926 1927 1938 
3     1938 1939 1927 
3     1927 1928 1939 
3     1939 1940 1928 
3     1928 1929 1940 
3     1940 1941 1929 
3     1929 1930 1941 
3     1941 1942 1930 
3     1930 1931 1942 
3     1942 1943 1931 
3     1931 1932 1943 
3     1943 1944 1932 
3     1932 1933 1944 
3     1944 1945 1933 
3     1933 1934 1945 
3     1945 1946 1934 
3     1934 1935 1946 
3     1946 1947 1935 
3     1935 1936 1947 
3     1947 1948 1936 
3     1936 1937 1948 
3     1948 1949 1937 
3     1926 1937 1949 
3     1938 1949 1926 
3     1938 1939 1950 
3     1950 1951 1939 
3     1939 1940 1951 
3     1951 1952 1940 
3     1940 1941 1952 
3     1952 1953 1941 
3     1941 1942 1953 
3     1953 1954 1942 
3     1942 1943 1954 
3     1954 1955 1943 
3     1943 1944 1955 
3     1955 1956 1944 
3     1944 1945 1956 
3     1956 1957 1945 
3     1945 1946 1957 
3     1957 1958 1946 
3     1946 1947 1958 
3     1958 1959 1947 
3     1947 1948 1959 
3     1959 1960 1948 
3     1948 1949 1960 
3     1960 1961 1949 
3     1938 1949 1961 
3     1950 1961 1938 
3     1950 1951 1962 
3     1962 1963 1951 
3     1951 1952 1963 
3     1963 1964 1952 
3     1952 1953 1964 
3     1964 1965 1953 
3     1953 1954 1965 
3     1965 1966 1954 
3     1954 1955 1966 
3     1966 1967 1955 
3     1955 1956 1967 
3     1967 1968 1956 
3     1956 1957 1968 
3     1968 1969 1957 
3     1957 1958 1969 
3     1969 1970 1958 
3     1958 1959 1970 
3     1970 1971 1959 
3     1959 1960 1971 
3     1971 1972 1960 
3     1960 1961 1972 
3     1972 1973 1961 
3     1950 1961 1973 
3     1962 1973 1950 
3     1962 1963 1974 
3     1974 1975 1963 
3     1963 1964 1975 
3     1975 1976 1964 
3     1964 1965 1976 
3     1976 1977 1965 
3     1965 1966 1977 
3     1977 1978 1966 
3     1966 1967 1978 
3     1978 1979 1967 
3     1967 1968 1979 
3     1979 1980 1968 
3     1968 1969 1980 
3     1980 1981 1969 
3     1969 1970 1981 
3     1981 1982 1970 
3     1970 1971 1982 
3     1982 1983 1971 
3     1971 1972 1983 
3     1983 1984 1972 
3     1972 1973 1984 
3     1984 1985 1973 
3     1962 1973 1985 
3     1974 1985 1962 
3     1974 1975 1986 
3     1986 1987 1975 
3     1975 1976 1987 
3     1987 1988 1976 
3     1976 1977 1988 
3     1988 1989 1977 
3     1977 1978 1989 
3     1989 1990 1978 
3     1978 1979 1990 
3     1990 1991 1979 
3     1979 1980 1991 
3     1991 1992 1980 
3     1980 1981 1992 
3     1992 1993 1981 
3     1981 1982 1993 
3     1993 1994 1982 
3     1982 1983 1994 
3     1994 1995 1983 
3     1983 1984 1995 
3     1995 1996 1984 
3     1984 1985 1996 
3     1996 1997 1985 
3     1974 1985 1997 
3     1986 1997 1974 
3     1986 1987 1998 
3     1998 1999 1987 
3     1987 1988 1999 
3     1999 2000 1988 
3     1988 1989 2000 
3     2000 2001 1989 
3     1989 1990 2001 
3     2001 2002 1990 
3     1990 1991 2002 
3     2002 2003 1991 
3     1991 1992 2003 
3     2003 2004 1992 
3     1992 1993 2004 
3     2004 2005 1993 
3     1993 1994 2005 
3     2005 2006 1994 
3     1994 1995 2006 
3     2006 2007 1995 
3     1995 1996 2007 
3     2007 2008 1996 
3     1996 1997 2008 
3     2008 2009 1997 
3     1986 1997 2009 
3     1998 2009 1986 
3     1998 1999 2010 
3     2010 2011 1999 
3     1999 2000 2011 
3     2011 2012 2000 
3     2000 2001 2012 
3     2012 2013 2001 
3     2001 2002 2013 
3     2013 2014 2002 
3     2002 2003 2014 
3     2014 2015 2003 
3     2003 2004 2015 
3     2015 2016 2004 
3     2004 2005 2016 
3     2016 2017 2005 
3     2005 2006 2017 
3     2017 2018 2006 
3     2006 2007 2018 
3     2018 2019 2007 
3     2007 2008 2019 
3     2019 2020 2008 
3     2008 2009 2020 
3     2020 2021 2009 
3     1998 2009 2021 
3     2010 2021 1998 
3     2010 2011 2022 
3     2022 2023 2011 
3     2011 2012 2023 
3     2023 2024 2012 
3     2012 2013 2024 
3     2024 2025 2013 
3     2013 2014 2025 
3     2025 2026 2014 
3     2014 2015 2026 
3     2026 2027 2015 
3     2015 2016 2027 
3     2027 2028 2016 
3     2016 2017 2028 
3     2028 2029 2017 
3     2017 2018 2029 
3     2029 2030 2018 
3     2018 2019 2030 
3     2030 2031 2019 
3     2019 2020 2031 
3     2031 2032 2020 
3     2020 2021 2032 
3     2032 2033 2021 
3     2010 2021 2033 
3     2022 2033 2010 
3     2022 2023 2034 
3     2034 2035 2023 
3     2023 2024 2035 
3     2035 2036 2024 
3     2024 2025 2036 
3     2036 2037 2025 
3     2025 2026 2037 
3     2037 2038 2026 
3     2026 2027 2038 
3     2038 2039 2027 
3     2027 2028 2039 
3     2039 2040 2028 
3     2028 2029 2040 
3     2040 2041 2029 
3     2029 2030 2041 
3     2041 2042 2030 
3     2030 2031 2042 
3     2042 2043 2031 
3     2031 2032 2043 
3     2043 2044 2032 
3     2032 2033 2044 
3     2044 2045 2033 
3     2022 2033 2045 
3     2034 2045 2022 
3     2034 2035 2046 
3     2046 2047 2035 
3     2035 2036 2047 
3     2047 2048 2036 
3     2036 2037 2048 
3     2048 2049 2037 
3     2037 2038 2049 
3     2049 2050 2038 
3     2038 2039 2050 
3     2050 2051 2039 
3     2039 2040 2051 
3     2051 2052 2040 
3     2040 2041 2052 
3     2052 2053 2041 
3     2041 2042 2053 
3     2053 2054 2042 
3     2042 2043 2054 
3     2054 2055 2043 
3     2043 2044 2055 
3     2055 2056 2044 
3     2044 2045 2056 
3     2056 2057 2045 
3     2034 2045 2057 
3     2046 2057 2034 
3     2046 2047 1920 
3     1920 1921 2047 
3     2047 2048 1921 
3     1921 1922 2048 
3     2048 2049 1922 
3     1922 1923 2049 
3     2049 2050 1923 
3     1923 1924 2050 
3     2050 2051 1924 
3     1924 1925 2051 
3     2051 2052 1925 
3     1914 1925 2052 
3     2052 2053 1914 
3     1914 1915 2053 
3     2053 2054 1915 
3     1915 1916 2054 
3     2054 2055 1916 
3     1916 1917 2055 
3     2055 2056 1917 
3     1917 1918 2056 
3     2056 2057 1918 
3     1918 1919 2057 
3     2046 2057 1919 
3     1919 1920 2046 
3     2058 2059 2060 
3     2058 2060 2061 
3     2058 2061 2062 
3     2058 2062 2063 
3     2058 2063 2064 
3     2058 2064 2065 
3     2058 2065 2066 
3     2058 2066 2059 
3     2059 2060 2067 
3     2067 2068 2060 
3     2060 2061 2068 
3     2068 2069 2061 
3     2061 2062 2069 
3     2069 2070 2062 
3     2062 2063 2070 
3     2070 2071 2063 
3     2063 2064 2071 
3     2071 2072 2064 
3     2064 2065 2072 
3     2072 2073 2065 
3     2065 2066 2073 
3     2073 2074 2066 
3     2059 2066 2074 
3     2067 2074 2059 
3     2067 2068 2075 
3     2075 2076 2068 
3     2068 2069 2076 
3     2076 2077 2069 
3     2069 2070 2077 
3     2077 2078 2070 
3     2070 2071 2078 
3     2078 2079 2071 
3     2071 2072 2079 
3     2079 2080 2072 
3     2072 2073 2080 
3     2080 2081 2073 
3     2073 2074 2081 
3     2081 2082 2074 
3     2067 2074 2082 
3     2075 2082 2067 
3     2075 2076 2083 
3     2083 2084 2076 
3     2076 2077 2084 
3     2084 2085 2077 
3     2077 2078 2085 
3     2085 2086 2078 
3     2078 2079 2086 
3     2086 2087 2079 
3     2079 2080 2087 
3     2087 2088 2080 
3     2080 2081 2088 
3     2088 2089 2081 
3     2081 2082 2089 
3     2089 2090 2082 
3     2075 2082 2090 
3     2083 2090 2075 
3     2083 2084 2091 
3     2091 2092 2084 
3     2084 2085 2092 
3     2092 2093 2085 
3     2085 2086 2093 
3     2093 2094 2086 
3     2086 2087 2094 
3     2094 2095 2087 
3     2087 2088 2095 
3     2095 2096 2088 
3     2088 2089 2096 
3     2096 2097 2089 
3     2089 2090 2097 
3     2097 2098 2090 
3     2083 2090 2098 
3     2091 2098 2083 
3     2091 2092 2099 
3     2092 2093 2099 
3     2093 2094 2099 
3     2094 2095 2099 
3     2095 2096 2099 
3     2096 2097 2099 
3     2097 2098 2099 
3     2091 2098 2099 
3     2100 2101 2102 
3     2100 2102 2103 
3     2100 2103 2104 
3     2100 2104 2105 
3     2100 2105 2106 
3     2100 2106 2107 
3     2100 2107 2108 
3     2100 2108 2109 
3     2100 2109 2110 
3     2100 2110 2111 
3     2100 2111 2112 
3     2100 2112 2101 
3     2101 2102 2113 
3     2113 2114 2102 
3     2102 2103 2114 
3     2114 2115 2103 
3     2103 2104 2115 
3     2115 2116 2104 
3     2104 2105 2116 
3     2116 2117 2105 
3     2105 2106 2117 
3     2117 2118 2106 
3     2106 2107 2118 
3     2118 2119 2107 
3     2107 2108 2119 
3     2119 2120 2108 
3     2108 2109 2120 
3     2120 2121 2109 
3     2109 2110 2121 
3     2121 2122 2110 
3     2110 2111 2122 
3     2122 2123 2111 
3     2111 2112 2123 
3     2123 2124 2112 
3     2101 2112 2124 
3     2113 2124 2101 
3     2113 2114 2125 
3     2114 2115 2125 
3     2115 2116 2125 
3     2116 2117 2125 
3     2117 2118 2125 
3     2118 2119 2125 
3     2119 2120 2125 
3     2120 2121 2125 
3     2121 2122 2125 
3     2122 2123 2125 
3     2123 2124 2125 
3     2113 2124 2125 
3     2126 2127 2138 
3     2138 2139 2127 
3     2127 2128 2139 
3     2139 2140 2128 
3     2128 2129 2140 
3     2140 2141 2129 
3     2129 2130 2141 
3     2141 2142 2130 
3     2130 2131 2142 
3     2142 2143 2131 
3     2131 2132 2143 
3     2143 2144 2132 
3     2132 2133 2144 
3     2144 2145 2133 
3     2133 2134 2145 
3     2145 2146 2134 
3     2134 2135 2146 
3     2146 2147 2135 
3     2135 2136 2147 
3     2147 2148 2136 
3     2136 2137 2148 
3     2148 2149 2137 
3     2126 2137 2149 
3     2138 2149 2126 
3     2138 2139 2150 
3     2150 2151 2139 
3     2139 2140 2151 
3     2151 2152 2140 
3     2140 2141 2152 
3     2152 2153 2141 
3     2141 2142 2153 
3     2153 2154 2142 
3     2142 2143 2154 
3     2154 2155 2143 
3     2143 2144 2155 
3     2155 2156 2144 
3     2144 2145 2156 
3     2156 2157 2145 
3     2145 2146 2157 
3     2157 2158 2146 
3     2146 2147 2158 
3     2158 2159 2147 
3     2147 2148 2159 
3     2159 2160 2148 
3     2148 2149 2160 
3     2160 2161 2149 
3     2138 2149 2161 
3     2150 2161 2138 
3     2150 2151 2162 
3     2162 2163 2151 
3     2151 2152 2163 
3     2163 2164 2152 
3     2152 2153 2164 
3     2164 2165 2153 
3     2153 2154 2165 
3     2165 2166 2154 
3     2154 2155 2166 
3     2166 2167 2155 
3     2155 2156 2167 
3     2167 2168 2156 
3     2156 2157 2168 
3     2168 2169 2157 
3     2157 2158 2169 
3     2169 2170 2158 
3     2158 2159 2170 
3     2170 2171 2159 
3     2159 2160 2171 
3     2171 2172 2160 
3     2160 2161 2172 
3     2172 2173 2161 
3     2150 2161 2173 
3     2162 2173 2150 
3     2162 2163 2174 
3     2174 2175 2163 
3     2163 2164 2175 
3     2175 2176 2164 
3     2164 2165 2176 
3     2176 2177 2165 
3     2165 2166 2177 
3     2177 2178 2166 
3     2166 2167 2178 
3     2178 2179 2167 
3     2167 2168 2179 
3     2179 2180 2168 
3     2168 2169 2180 
3     2180 2181 2169 
3     2169 2170 2181 
3     2181 2182 2170 
3     2170 2171 2182 
3     2182 2183 2171 
3     2171 2172 2183 
3     2183 2184 2172 
3     2172 2173 2184 
3     2184 2185 2173 
3     2162 2173 2185 
3     2174 2185 2162 
3     2174 2175 2186 
3     2186 2187 2175 
3     2175 2176 2187 
3     2187 2188 2176 
3     2176 2177 2188 
3     2188 2189 2177 
3     2177 2178 2189 
3     2189 2190 2178 
3     2178 2179 2190 
3     2190 2191 2179 
3     2179 2180 2191 
3     2191 2192 2180 
3     2180 2181 2192 
3     2192 2193 2181 
3     2181 2182 2193 
3     2193 2194 2182 
3     2182 2183 2194 
3     2194 2195 2183 
3     2183 2184 2195 
3     2195 2196 2184 
3     2184 2185 2196 
3     2196 2197 2185 
3     2174 2185 2197 
3     2186 2197 2174 
3     2186 2187 2198 
3     2198 2199 2187 
3     2187 2188 2199 
3     2199 2200 2188 
3     2188 2189 2200 
3     2200 2201 2189 
3     2189 2190 2201 
3     2201 2202 2190 
3     2190 2191 2202 
3     2202 2203 2191 
3     2191 2192 2203 
3     2203 2204 2192 
3     2192 2193 2204 
3     2204 2205 2193 
3     2193 2194 2205 
3     2205 2206 2194 
3     2194 2195 2206 
3     2206 2207 2195 
3     2195 2196 2207 
3     2207 2208 2196 
3     2196 2197 2208 
3     2208 2209 2197 
3     2186 2197 2209 
3     2198 2209 2186 
3     2198 2199 2210 
3     2210 2211 2199 
3     2199 2200 2211 
3     2211 2212 2200 
3     2200 2201 2212 
3     2212 2213 2201 
3     2201 2202 2213 
3     2213 2214 2202 
3     2202 2203 2214 
3     2214 2215 2203 
3     2203 2204 2215 
3     2215 2216 2204 
3     2204 2205 2216 
3     2216 2217 2205 
3     2205 2206 2217 
3     2217 2218 2206 
3     2206 2207 2218 
3     2218 2219 2207 
3     2207 2208 2219 
3     2219 2220 2208 
3     2208 2209 2220 
3     2220 2221 2209 
3     2198 2209 2221 
3     2210 2221 2198 
3     2210 2211 2222 
3     2222 2223 2211 
3     2211 2212 2223 
3     2223 2224 2212 
3     2212 2213 2224 
3     2224 2225 2213 
3     2213 2214 2225 
3     2225 2226 2214 
3     2214 2215 2226 
3     2226 2227 2215 
3     2215 2216 2227 
3     2227 2228 2216 
3     2216 2217 2228 
3     2228 2229 2217 
3     2217 2218 2229 
3     2229 2230 2218 
3     2218 2219 2230 
3     2230 2231 2219 
3     2219 2220 2231 
3     2231 2232 2220 
3     2220 2221 2232 
3     2232 2233 2221 
3     2210 2221 2233 
3     2222 2233 2210 
3     2222 2223 2234 
3     2234 2235 2223 
3     2223 2224 2235 
3     2235 2236 2224 
3     2224 2225 2236 
3     2236 2237 2225 
3     2225 2226 2237 
3     2237 2238 2226 
3     2226 2227 2238 
